# .PCD v.7 - Point Cloud Data file format
VERSION .7
FIELDS x y z
SIZE 4 4 4
TYPE F F F
COUNT 1 1 1
WIDTH 1656
HEIGHT 1
POINTS 1656
DATA ascii
-0.061896 0.157646 -0.020339
-0.061754 0.157647 -0.020840
-0.061756 0.157647 -0.021340
-0.061615 0.157648 -0.021840
-0.061616 0.157647 -0.022340
-0.061618 0.157647 -0.022840
-0.061477 0.157648 -0.023341
-0.061478 0.157647 -0.023841
-0.061623 0.157645 -0.024340
-0.061481 0.157646 -0.024841
-0.061483 0.157645 -0.025341
-0.061484 0.157645 -0.025841
-0.061629 0.157642 -0.026340
-0.061488 0.157643 -0.026841
-0.061489 0.157643 -0.027341
-0.061633 0.157640 -0.027840
-0.061492 0.157641 -0.028341
-0.061494 0.157641 -0.028841
-0.061495 0.157640 -0.029341
-0.061497 0.157639 -0.029841
-0.061641 0.157637 -0.030340
-0.061643 0.157636 -0.030840
-0.061644 0.157635 -0.031340
-0.061646 0.157635 -0.031840
-0.061790 0.157632 -0.032340
-0.061792 0.157631 -0.032840
-0.061936 0.157629 -0.033339
-0.061937 0.157628 -0.033839
-0.062082 0.157625 -0.034339
-0.062083 0.157625 -0.034839
-0.062228 0.157622 -0.035338
-0.062372 0.157620 -0.035838
-0.062373 0.157619 -0.036338
-0.062518 0.157616 -0.036837
-0.062519 0.157616 -0.037337
-0.062663 0.157613 -0.037837
-0.062808 0.157610 -0.038337
-0.062952 0.157609 -0.038836
-0.062953 0.157608 -0.039336
-0.063098 0.157606 -0.039836
-0.063242 0.157603 -0.040335
-0.063243 0.157602 -0.040835
-0.063388 0.157600 -0.041335
-0.063532 0.157597 -0.041834
-0.063534 0.157596 -0.042334
-0.063678 0.157594 -0.042834
-0.063822 0.157591 -0.043333
-0.063966 0.157589 -0.043833
-0.063968 0.157588 -0.044333
-0.063969 0.157587 -0.044833
-0.064256 0.157583 -0.045332
-0.064258 0.157582 -0.045832
-0.064402 0.157579 -0.046332
-0.064404 0.157579 -0.046832
-0.064548 0.157577 -0.047331
-0.064550 0.157576 -0.047831
-0.064551 0.157576 -0.048331
-0.064695 0.157573 -0.048831
-0.064697 0.157573 -0.049331
-0.064841 0.157570 -0.049830
-0.064843 0.157569 -0.050330
-0.064844 0.157569 -0.050830
-0.064846 0.157568 -0.051330
-0.064847 0.157567 -0.051830
-0.064849 0.157567 -0.052330
-0.064851 0.157566 -0.052830
-0.064852 0.157565 -0.053330
-0.064854 0.157565 -0.053830
-0.064855 0.157564 -0.054330
-0.065142 0.157559 -0.054829
-0.048534 0.158636 0.009368
-0.047680 0.158646 0.008865
-0.046682 0.158658 0.008362
-0.045970 0.158666 0.007860
-0.045401 0.158674 0.007358
-0.044975 0.158678 0.006857
-0.044548 0.158683 0.006356
-0.044264 0.158685 0.005855
-0.043838 0.158690 0.005353
-0.043411 0.158695 0.004852
-0.036140 0.158782 0.004329
-0.035062 0.158794 0.003826
-0.034253 0.158802 0.003324
-0.032636 0.158821 0.002819
-0.031962 0.158827 0.002316
-0.030884 0.158839 0.001813
-0.029536 0.158854 0.001309
-0.028728 0.158863 0.000806
-0.027785 0.158873 0.000303
-0.026977 0.158881 -0.000199
-0.026034 0.158891 -0.000702
-0.025226 0.158900 -0.001205
-0.024552 0.158907 -0.001707
-0.023744 0.158915 -0.002209
-0.023071 0.158922 -0.002711
-0.022533 0.158928 -0.003213
-0.021859 0.158935 -0.003715
-0.021456 0.158938 -0.004216
-0.021053 0.158942 -0.004718
-0.020515 0.158949 -0.005219
-0.019976 0.158954 -0.005721
-0.019978 0.158953 -0.006221
-0.019710 0.158955 -0.006722
-0.019306 0.158959 -0.007223
-0.018903 0.158964 -0.007724
-0.018365 0.158969 -0.008226
-0.018366 0.158968 -0.008726
-0.018098 0.158970 -0.009227
-0.018099 0.158970 -0.009727
-0.017696 0.158974 -0.010228
-0.065723 0.158394 -0.011578
-0.065011 0.158402 -0.012081
-0.064727 0.158405 -0.012581
-0.064586 0.158407 -0.013082
-0.064445 0.158408 -0.013582
-0.064161 0.158411 -0.014083
-0.063877 0.158413 -0.014584
-0.063879 0.158413 -0.015084
-0.063738 0.158414 -0.015585
-0.063454 0.158417 -0.016085
-0.063313 0.158419 -0.016586
-0.063029 0.158421 -0.017087
-0.062888 0.158422 -0.017587
-0.062747 0.158423 -0.018088
-0.062605 0.158425 -0.018588
-0.062322 0.158427 -0.019089
-0.062323 0.158426 -0.019589
-0.062182 0.158427 -0.020089
-0.062041 0.158429 -0.020590
-0.061900 0.158430 -0.021090
-0.061901 0.158429 -0.021590
-0.061760 0.158431 -0.022091
-0.061762 0.158430 -0.022591
-0.061763 0.158429 -0.023091
-0.061622 0.158431 -0.023591
-0.061624 0.158430 -0.024091
-0.061625 0.158429 -0.024591
-0.061627 0.158429 -0.025091
-0.061628 0.158428 -0.025591
-0.061630 0.158427 -0.026091
-0.061489 0.158428 -0.026592
-0.061490 0.158427 -0.027092
-0.061635 0.158425 -0.027591
-0.061493 0.158426 -0.028092
-0.061495 0.158425 -0.028592
-0.061496 0.158424 -0.029092
-0.061498 0.158424 -0.029592
-0.061500 0.158423 -0.030092
-0.061501 0.158422 -0.030592
-0.061503 0.158422 -0.031092
-0.061504 0.158421 -0.031592
-0.061648 0.158419 -0.032091
-0.061650 0.158419 -0.032591
-0.061794 0.158416 -0.033091
-0.061796 0.158415 -0.033591
-0.061940 0.158413 -0.034090
-0.061942 0.158412 -0.034590
-0.062086 0.158409 -0.035090
-0.062087 0.158409 -0.035590
-0.062232 0.158406 -0.036089
-0.062376 0.158404 -0.036589
-0.062377 0.158403 -0.037089
-0.062379 0.158402 -0.037589
-0.062523 0.158401 -0.038088
-0.062668 0.158398 -0.038588
-0.062669 0.158397 -0.039088
-0.062813 0.158395 -0.039588
-0.062958 0.158392 -0.040087
-0.062959 0.158392 -0.040587
-0.063103 0.158389 -0.041087
-0.063105 0.158388 -0.041587
-0.063249 0.158386 -0.042086
-0.063251 0.158385 -0.042586
-0.063395 0.158383 -0.043086
-0.063397 0.158383 -0.043586
-0.063541 0.158380 -0.044085
-0.063542 0.158379 -0.044585
-0.063687 0.158377 -0.045085
-0.063831 0.158374 -0.045584
-0.063975 0.158372 -0.046084
-0.063977 0.158371 -0.046584
-0.064121 0.158368 -0.047084
-0.064122 0.158368 -0.047584
-0.064124 0.158367 -0.048084
-0.064126 0.158366 -0.048584
-0.064270 0.158365 -0.049083
-0.064271 0.158364 -0.049583
-0.064273 0.158363 -0.050083
-0.064417 0.158361 -0.050583
-0.064419 0.158360 -0.051083
-0.064420 0.158359 -0.051583
-0.064422 0.158359 -0.052083
-0.064423 0.158358 -0.052583
-0.064568 0.158356 -0.053082
-0.064569 0.158355 -0.053582
-0.064428 0.158356 -0.054083
-0.064430 0.158355 -0.054583
-0.064431 0.158355 -0.055083
-0.064718 0.158350 -0.055582
-0.065005 0.158346 -0.056081
-0.049108 0.159407 0.009119
-0.047826 0.159422 0.008615
-0.046686 0.159435 0.008111
-0.045831 0.159445 0.007609
-0.044834 0.159456 0.007106
-0.044550 0.159459 0.006605
-0.044123 0.159463 0.006103
-0.043697 0.159468 0.005602
-0.043413 0.159471 0.005101
-0.042844 0.159477 0.004599
-0.042703 0.159478 0.004099
-0.042276 0.159482 0.003598
-0.041992 0.159485 0.003097
-0.032774 0.159587 0.002568
-0.031021 0.159606 0.002062
-0.029808 0.159619 0.001559
-0.028865 0.159628 0.001056
-0.027922 0.159638 0.000553
-0.027113 0.159646 0.000050
-0.026170 0.159655 -0.000453
-0.025227 0.159665 -0.000956
-0.024554 0.159672 -0.001458
-0.023611 0.159681 -0.001961
-0.022937 0.159688 -0.002463
-0.022399 0.159693 -0.002964
-0.021726 0.159699 -0.003467
-0.021053 0.159706 -0.003969
-0.020649 0.159710 -0.004470
-0.020111 0.159715 -0.004972
-0.019573 0.159720 -0.005473
-0.019169 0.159724 -0.005975
-0.018631 0.159729 -0.006476
-0.018363 0.159731 -0.006977
-0.017960 0.159736 -0.007478
-0.017691 0.159738 -0.007979
-0.017288 0.159741 -0.008480
-0.017154 0.159742 -0.008981
-0.016886 0.159745 -0.009482
-0.016888 0.159744 -0.009982
-0.016484 0.159747 -0.010483
-0.016486 0.159746 -0.010983
-0.016083 0.159751 -0.011484
-0.016354 0.159747 -0.011983
-0.065442 0.159184 -0.012330
-0.065015 0.159188 -0.012832
-0.065159 0.159186 -0.013331
-0.064876 0.159189 -0.013832
-0.064734 0.159190 -0.014333
-0.064451 0.159192 -0.014833
-0.064167 0.159195 -0.015334
-0.064026 0.159196 -0.015835
-0.063885 0.159197 -0.016335
-0.063601 0.159200 -0.016836
-0.063460 0.159202 -0.017337
-0.063176 0.159204 -0.017837
-0.063035 0.159205 -0.018338
-0.062893 0.159206 -0.018838
-0.062610 0.159209 -0.019339
-0.062468 0.159210 -0.019840
-0.062470 0.159209 -0.020340
-0.062329 0.159210 -0.020840
-0.062188 0.159211 -0.021340
-0.062047 0.159212 -0.021841
-0.062048 0.159211 -0.022341
-0.061907 0.159213 -0.022841
-0.061909 0.159212 -0.023341
-0.061910 0.159211 -0.023841
-0.061769 0.159213 -0.024342
-0.061770 0.159212 -0.024842
-0.061629 0.159212 -0.025342
-0.061774 0.159211 -0.025842
-0.061632 0.159211 -0.026342
-0.061634 0.159210 -0.026842
-0.061636 0.159210 -0.027342
-0.061637 0.159209 -0.027842
-0.061496 0.159210 -0.028343
-0.061497 0.159210 -0.028843
-0.061499 0.159209 -0.029343
-0.061501 0.159208 -0.029843
-0.061502 0.159208 -0.030343
-0.061504 0.159207 -0.030843
-0.061648 0.159204 -0.031342
-0.061649 0.159204 -0.031842
-0.061651 0.159203 -0.032342
-0.061653 0.159202 -0.032842
-0.061654 0.159202 -0.033342
-0.061656 0.159201 -0.033842
-0.061800 0.159199 -0.034342
-0.061944 0.159197 -0.034841
-0.061946 0.159196 -0.035341
-0.061947 0.159195 -0.035841
-0.062092 0.159193 -0.036341
-0.062236 0.159190 -0.036840
-0.062237 0.159190 -0.037340
-0.062382 0.159188 -0.037840
-0.062383 0.159187 -0.038340
-0.062527 0.159185 -0.038839
-0.062529 0.159184 -0.039339
-0.062673 0.159181 -0.039839
-0.062675 0.159181 -0.040339
-0.062819 0.159178 -0.040839
-0.062821 0.159177 -0.041339
-0.062822 0.159177 -0.041839
-0.062966 0.159175 -0.042338
-0.062968 0.159175 -0.042838
-0.063112 0.159172 -0.043338
-0.063114 0.159171 -0.043838
-0.063258 0.159169 -0.044337
-0.063259 0.159168 -0.044837
-0.063404 0.159165 -0.045337
-0.063405 0.159165 -0.045837
-0.063549 0.159163 -0.046336
-0.063551 0.159162 -0.046836
-0.063695 0.159160 -0.047336
-0.063840 0.159157 -0.047835
-0.063841 0.159157 -0.048335
-0.063843 0.159156 -0.048835
-0.063844 0.159155 -0.049335
-0.063846 0.159155 -0.049835
-0.063847 0.159154 -0.050335
-0.063992 0.159151 -0.050835
-0.063993 0.159151 -0.051335
-0.063995 0.159150 -0.051835
-0.063996 0.159149 -0.052335
-0.064140 0.159147 -0.052835
-0.064142 0.159146 -0.053335
-0.064144 0.159145 -0.053835
-0.064145 0.159145 -0.054335
-0.064147 0.159144 -0.054835
-0.064148 0.159143 -0.055335
-0.064150 0.159143 -0.055835
-0.064294 0.159141 -0.056334
-0.048257 0.160195 0.008365
-0.046832 0.160211 0.007861
-0.045264 0.160228 0.007356
-0.044694 0.160234 0.006854
-0.044268 0.160238 0.006353
-0.043556 0.160245 0.005851
-0.043415 0.160246 0.005350
-0.042703 0.160254 0.004848
-0.042419 0.160256 0.004347
-0.042135 0.160259 0.003846
-0.041709 0.160263 0.003345
-0.041140 0.160269 0.002843
-0.040713 0.160273 0.002342
-0.040287 0.160277 0.001840
-0.030081 0.160384 0.001309
-0.029003 0.160394 0.000805
-0.027925 0.160404 0.000302
-0.027117 0.160412 -0.000201
-0.025633 0.160426 -0.000705
-0.025095 0.160432 -0.001207
-0.024017 0.160442 -0.001710
-0.023344 0.160448 -0.002212
-0.022670 0.160454 -0.002715
-0.021862 0.160462 -0.003217
-0.021324 0.160467 -0.003719
-0.020516 0.160474 -0.004221
-0.020112 0.160478 -0.004723
-0.019439 0.160484 -0.005225
-0.018901 0.160488 -0.005726
-0.018362 0.160493 -0.006228
-0.017959 0.160497 -0.006729
-0.017556 0.160501 -0.007231
-0.017153 0.160504 -0.007732
-0.016749 0.160507 -0.008233
-0.016481 0.160509 -0.008734
-0.016212 0.160512 -0.009235
-0.015944 0.160514 -0.009736
-0.015811 0.160514 -0.010236
-0.015677 0.160515 -0.010736
-0.015409 0.160518 -0.011237
-0.015275 0.160518 -0.011738
-0.015142 0.160518 -0.012238
-0.015144 0.160518 -0.012738
-0.015550 0.160513 -0.013237
-0.065447 0.159969 -0.013581
-0.065163 0.159972 -0.014082
-0.065022 0.159973 -0.014583
-0.064881 0.159973 -0.015083
-0.064597 0.159976 -0.015584
-0.064456 0.159978 -0.016084
-0.064172 0.159980 -0.016585
-0.064031 0.159981 -0.017086
-0.063747 0.159983 -0.017587
-0.063606 0.159985 -0.018087
-0.063322 0.159987 -0.018588
-0.063324 0.159986 -0.019088
-0.063183 0.159987 -0.019588
-0.062899 0.159990 -0.020089
-0.062615 0.159993 -0.020590
-0.062617 0.159992 -0.021090
-0.062618 0.159992 -0.021590
-0.062335 0.159994 -0.022091
-0.062193 0.159995 -0.022592
-0.062052 0.159995 -0.023092
-0.062197 0.159994 -0.023592
-0.062055 0.159994 -0.024092
-0.062057 0.159993 -0.024592
-0.062058 0.159993 -0.025092
-0.061917 0.159994 -0.025592
-0.061776 0.159995 -0.026093
-0.061778 0.159995 -0.026593
-0.061779 0.159994 -0.027093
-0.061781 0.159993 -0.027593
-0.061640 0.159994 -0.028093
-0.061641 0.159993 -0.028593
-0.061643 0.159992 -0.029093
-0.061644 0.159992 -0.029593
-0.061646 0.159991 -0.030093
-0.061648 0.159990 -0.030593
-0.061649 0.159990 -0.031093
-0.061651 0.159989 -0.031593
-0.061652 0.159988 -0.032093
-0.061511 0.159990 -0.032594
-0.061655 0.159987 -0.033093
-0.061657 0.159986 -0.033593
-0.061658 0.159986 -0.034093
-0.061803 0.159984 -0.034593
-0.061804 0.159983 -0.035093
-0.061806 0.159983 -0.035593
-0.061950 0.159980 -0.036092
-0.062094 0.159977 -0.036592
-0.062096 0.159977 -0.037092
-0.062097 0.159976 -0.037592
-0.062241 0.159975 -0.038091
-0.062243 0.159974 -0.038591
-0.062245 0.159973 -0.039091
-0.062389 0.159971 -0.039591
-0.062533 0.159968 -0.040091
-0.062535 0.159967 -0.040591
-0.062536 0.159967 -0.041091
-0.062680 0.159965 -0.041590
-0.062682 0.159964 -0.042090
-0.062826 0.159962 -0.042590
-0.062828 0.159961 -0.043090
-0.062829 0.159960 -0.043590
-0.062973 0.159958 -0.044089
-0.063118 0.159955 -0.044589
-0.063119 0.159955 -0.045089
-0.063264 0.159953 -0.045588
-0.063265 0.159952 -0.046088
-0.063267 0.159952 -0.046588
-0.063268 0.159951 -0.047088
-0.063412 0.159948 -0.047588
-0.063414 0.159948 -0.048088
-0.063558 0.159945 -0.048587
-0.063560 0.159944 -0.049087
-0.063561 0.159944 -0.049587
-0.063706 0.159942 -0.050087
-0.063564 0.159942 -0.050587
-0.063709 0.159941 -0.051087
-0.063710 0.159940 -0.051587
-0.063712 0.159940 -0.052087
-0.063713 0.159939 -0.052587
-0.063858 0.159936 -0.053086
-0.063716 0.159938 -0.053587
-0.063718 0.159937 -0.054087
-0.063862 0.159934 -0.054586
-0.063864 0.159934 -0.055086
-0.063865 0.159933 -0.055586
-0.063867 0.159932 -0.056086
-0.063868 0.159932 -0.056586
-0.063727 0.159933 -0.057087
-0.048545 0.160969 0.008115
-0.047263 0.160983 0.007611
-0.045124 0.161005 0.007104
-0.044270 0.161014 0.006602
-0.043701 0.161019 0.006100
-0.043274 0.161023 0.005599
-0.042848 0.161028 0.005097
-0.042279 0.161034 0.004595
-0.041995 0.161036 0.004095
-0.041568 0.161040 0.003593
-0.041284 0.161042 0.003092
-0.040715 0.161048 0.002591
-0.040289 0.161052 0.002089
-0.039577 0.161059 0.001587
-0.039293 0.161062 0.001086
-0.038589 0.161068 0.000584
-0.038321 0.161070 0.000083
-0.039155 0.161061 -0.000414
-0.025907 0.161188 -0.000956
-0.025638 0.161190 -0.001456
-0.026584 0.161181 -0.001953
-0.023482 0.161210 -0.002463
-0.022673 0.161217 -0.002966
-0.021730 0.161225 -0.003469
-0.020922 0.161233 -0.003971
-0.020249 0.161238 -0.004473
-0.019575 0.161245 -0.004975
-0.019037 0.161249 -0.005477
-0.018364 0.161255 -0.005979
-0.017960 0.161258 -0.006480
-0.017557 0.161261 -0.006982
-0.017019 0.161266 -0.007483
-0.016615 0.161269 -0.007984
-0.016212 0.161273 -0.008486
-0.015944 0.161275 -0.008987
-0.015540 0.161278 -0.009488
-0.015272 0.161279 -0.009989
-0.015138 0.161281 -0.010489
-0.014870 0.161282 -0.010990
-0.014737 0.161283 -0.011490
-0.014603 0.161283 -0.011991
-0.014335 0.161286 -0.012492
-0.014066 0.161287 -0.012992
-0.013933 0.161288 -0.013493
-0.013935 0.161287 -0.013993
-0.013936 0.161287 -0.014493
-0.065453 0.160755 -0.014832
-0.065312 0.160755 -0.015333
-0.065028 0.160757 -0.015834
-0.064744 0.160760 -0.016335
-0.064603 0.160761 -0.016835
-0.064319 0.160763 -0.017336
-0.064321 0.160762 -0.017836
-0.064037 0.160765 -0.018337
-0.063896 0.160766 -0.018837
-0.063612 0.160769 -0.019338
-0.063471 0.160769 -0.019839
-0.063187 0.160771 -0.020339
-0.063189 0.160771 -0.020839
-0.063047 0.160772 -0.021340
-0.062764 0.160774 -0.021841
-0.062623 0.160776 -0.022341
-0.062481 0.160777 -0.022842
-0.062483 0.160776 -0.023342
-0.062342 0.160777 -0.023842
-0.062343 0.160776 -0.024342
-0.062345 0.160775 -0.024842
-0.062204 0.160776 -0.025343
-0.062063 0.160777 -0.025843
-0.062064 0.160776 -0.026343
-0.062066 0.160775 -0.026843
-0.061925 0.160777 -0.027343
-0.061926 0.160776 -0.027843
-0.061928 0.160775 -0.028343
-0.061787 0.160777 -0.028844
-0.061788 0.160776 -0.029344
-0.061790 0.160775 -0.029844
-0.061791 0.160775 -0.030344
-0.061793 0.160774 -0.030844
-0.061794 0.160773 -0.031344
-0.061653 0.160774 -0.031844
-0.061797 0.160772 -0.032344
-0.061656 0.160772 -0.032844
-0.061658 0.160772 -0.033344
-0.061659 0.160771 -0.033844
-0.061804 0.160769 -0.034344
-0.061805 0.160769 -0.034844
-0.061807 0.160768 -0.035344
-0.061808 0.160767 -0.035844
-0.061953 0.160765 -0.036343
-0.062097 0.160762 -0.036843
-0.062098 0.160762 -0.037343
-0.062100 0.160761 -0.037843
-0.062101 0.160760 -0.038343
-0.062103 0.160760 -0.038843
-0.062247 0.160758 -0.039342
-0.062391 0.160755 -0.039842
-0.062393 0.160755 -0.040342
-0.062537 0.160753 -0.040842
-0.062539 0.160752 -0.041342
-0.062540 0.160752 -0.041842
-0.062542 0.160751 -0.042342
-0.062686 0.160748 -0.042841
-0.062688 0.160748 -0.043341
-0.062832 0.160745 -0.043841
-0.062833 0.160744 -0.044341
-0.062835 0.160744 -0.044841
-0.062979 0.160742 -0.045340
-0.062981 0.160742 -0.045840
-0.063125 0.160739 -0.046340
-0.062984 0.160740 -0.046840
-0.062985 0.160740 -0.047340
-0.063130 0.160737 -0.047840
-0.063131 0.160736 -0.048340
-0.063275 0.160734 -0.048839
-0.063277 0.160733 -0.049339
-0.063279 0.160732 -0.049839
-0.063280 0.160732 -0.050339
-0.063282 0.160731 -0.050839
-0.063283 0.160730 -0.051339
-0.063285 0.160730 -0.051839
-0.063429 0.160728 -0.052339
-0.063431 0.160727 -0.052839
-0.063432 0.160727 -0.053339
-0.063434 0.160726 -0.053839
-0.063435 0.160725 -0.054339
-0.063437 0.160725 -0.054839
-0.063581 0.160722 -0.055338
-0.063582 0.160722 -0.055838
-0.063441 0.160723 -0.056339
-0.063586 0.160720 -0.056838
-0.063444 0.160721 -0.057339
-0.063446 0.160721 -0.057839
-0.047409 0.161758 0.007360
-0.045413 0.161778 0.006854
-0.044131 0.161791 0.006350
-0.043419 0.161798 0.005848
-0.042992 0.161802 0.005347
-0.042281 0.161808 0.004844
-0.041711 0.161814 0.004343
-0.041428 0.161816 0.003842
-0.041001 0.161820 0.003340
-0.040717 0.161822 0.002840
-0.040291 0.161826 0.002338
-0.039722 0.161831 0.001836
-0.039295 0.161835 0.001335
-0.038869 0.161838 0.000834
-0.038458 0.161843 0.000333
-0.037784 0.161848 -0.000170
-0.037111 0.161853 -0.000672
-0.036168 0.161861 -0.001175
-0.035764 0.161864 -0.001676
-0.034821 0.161872 -0.002179
-0.020252 0.162000 -0.004724
-0.019443 0.162007 -0.005227
-0.018770 0.162012 -0.005729
-0.018232 0.162017 -0.006230
-0.017828 0.162020 -0.006732
-0.017155 0.162026 -0.007234
-0.016751 0.162029 -0.007735
-0.016213 0.162033 -0.008237
-0.015810 0.162035 -0.008738
-0.015541 0.162037 -0.009239
-0.015003 0.162041 -0.009741
-0.014870 0.162042 -0.010241
-0.014466 0.162045 -0.010742
-0.014198 0.162047 -0.011243
-0.013929 0.162048 -0.011744
-0.013796 0.162050 -0.012244
-0.013528 0.162051 -0.012745
-0.013394 0.162051 -0.013246
-0.013261 0.162053 -0.013746
-0.013127 0.162053 -0.014246
-0.012859 0.162055 -0.014747
-0.012725 0.162055 -0.015248
-0.013267 0.162050 -0.015746
-0.065601 0.161538 -0.016083
-0.065317 0.161540 -0.016584
-0.065176 0.161541 -0.017084
-0.065035 0.161542 -0.017585
-0.064751 0.161544 -0.018086
-0.064467 0.161546 -0.018586
-0.064041 0.161550 -0.019088
-0.064043 0.161550 -0.019588
-0.063901 0.161550 -0.020088
-0.063760 0.161551 -0.020589
-0.063476 0.161554 -0.021090
-0.063335 0.161555 -0.021590
-0.063194 0.161555 -0.022090
-0.063053 0.161556 -0.022591
-0.062912 0.161557 -0.023091
-0.062771 0.161558 -0.023592
-0.062772 0.161557 -0.024092
-0.062774 0.161557 -0.024592
-0.062490 0.161559 -0.025093
-0.062492 0.161558 -0.025593
-0.062493 0.161558 -0.026093
-0.062352 0.161558 -0.026593
-0.062354 0.161557 -0.027093
-0.062213 0.161558 -0.027594
-0.062214 0.161558 -0.028094
-0.062073 0.161558 -0.028594
-0.061932 0.161559 -0.029094
-0.061933 0.161559 -0.029594
-0.061935 0.161558 -0.030094
-0.061937 0.161557 -0.030594
-0.061938 0.161557 -0.031094
-0.061797 0.161558 -0.031595
-0.061941 0.161555 -0.032094
-0.061943 0.161555 -0.032594
-0.061802 0.161556 -0.033095
-0.061803 0.161555 -0.033595
-0.061805 0.161555 -0.034095
-0.061949 0.161552 -0.034594
-0.061808 0.161553 -0.035095
-0.061809 0.161553 -0.035595
-0.061954 0.161550 -0.036094
-0.061955 0.161549 -0.036594
-0.061957 0.161549 -0.037094
-0.061958 0.161548 -0.037594
-0.062102 0.161546 -0.038094
-0.062104 0.161545 -0.038594
-0.062106 0.161544 -0.039094
-0.062250 0.161543 -0.039593
-0.062251 0.161542 -0.040093
-0.062396 0.161539 -0.040593
-0.062397 0.161539 -0.041093
-0.062541 0.161537 -0.041593
-0.062400 0.161537 -0.042093
-0.062402 0.161537 -0.042593
-0.062546 0.161535 -0.043093
-0.062548 0.161534 -0.043593
-0.062549 0.161534 -0.044093
-0.062693 0.161531 -0.044592
-0.062695 0.161530 -0.045092
-0.062839 0.161529 -0.045592
-0.062841 0.161528 -0.046092
-0.062842 0.161528 -0.046592
-0.062844 0.161527 -0.047092
-0.062845 0.161526 -0.047592
-0.062990 0.161524 -0.048091
-0.062991 0.161523 -0.048591
-0.062993 0.161522 -0.049091
-0.062994 0.161522 -0.049591
-0.062996 0.161521 -0.050091
-0.062997 0.161520 -0.050591
-0.062999 0.161520 -0.051091
-0.063000 0.161519 -0.051591
-0.063002 0.161518 -0.052091
-0.063003 0.161518 -0.052591
-0.063005 0.161517 -0.053091
-0.063149 0.161515 -0.053591
-0.063151 0.161515 -0.054091
-0.063152 0.161514 -0.054591
-0.063154 0.161513 -0.055091
-0.063155 0.161513 -0.055591
-0.063157 0.161512 -0.056091
-0.063159 0.161511 -0.056591
-0.063303 0.161509 -0.057090
-0.063162 0.161510 -0.057591
-0.063021 0.161510 -0.058091
-0.045987 0.162549 0.006605
-0.043991 0.162568 0.006099
-0.042994 0.162577 0.005596
-0.042425 0.162582 0.005094
-0.041713 0.162589 0.004592
-0.041287 0.162593 0.004090
-0.040860 0.162596 0.003589
-0.040434 0.162599 0.003088
-0.040150 0.162601 0.002587
-0.039866 0.162604 0.002086
-0.039440 0.162608 0.001585
-0.038871 0.162613 0.001083
-0.038595 0.162614 0.000582
-0.038191 0.162617 0.000081
-0.037518 0.162622 -0.000421
-0.036845 0.162627 -0.000924
-0.036171 0.162632 -0.001426
-0.035093 0.162640 -0.001929
-0.034285 0.162646 -0.002431
-0.033746 0.162651 -0.002933
-0.034288 0.162645 -0.003431
-0.018369 0.162776 -0.006481
-0.017696 0.162781 -0.006983
-0.017293 0.162784 -0.007484
-0.016484 0.162790 -0.007987
-0.016081 0.162794 -0.008488
-0.015677 0.162796 -0.008989
-0.015139 0.162800 -0.009491
-0.014736 0.162803 -0.009992
-0.014467 0.162804 -0.010493
-0.014064 0.162807 -0.010994
-0.013795 0.162809 -0.011495
-0.013527 0.162810 -0.011996
-0.013259 0.162812 -0.012497
-0.012990 0.162813 -0.012998
-0.012857 0.162814 -0.013498
-0.012723 0.162815 -0.013999
-0.012590 0.162815 -0.014499
-0.012321 0.162817 -0.015000
-0.012188 0.162817 -0.015500
-0.012190 0.162816 -0.016000
-0.012056 0.162817 -0.016501
-0.011923 0.162818 -0.017001
-0.065607 0.162323 -0.017334
-0.065465 0.162324 -0.017834
-0.065182 0.162326 -0.018335
-0.064755 0.162330 -0.018837
-0.064757 0.162329 -0.019337
-0.064473 0.162332 -0.019838
-0.064189 0.162333 -0.020338
-0.064191 0.162332 -0.020838
-0.063907 0.162334 -0.021339
-0.063766 0.162336 -0.021840
-0.063482 0.162338 -0.022341
-0.063484 0.162337 -0.022841
-0.063343 0.162338 -0.023341
-0.063201 0.162339 -0.023842
-0.063203 0.162338 -0.024342
-0.062919 0.162340 -0.024842
-0.063063 0.162338 -0.025342
-0.062922 0.162339 -0.025842
-0.062781 0.162339 -0.026343
-0.062640 0.162341 -0.026843
-0.062642 0.162340 -0.027343
-0.062501 0.162340 -0.027844
-0.062359 0.162342 -0.028344
-0.062361 0.162341 -0.028844
-0.062362 0.162340 -0.029344
-0.062221 0.162341 -0.029845
-0.062223 0.162340 -0.030345
-0.062225 0.162339 -0.030845
-0.062083 0.162340 -0.031345
-0.062085 0.162340 -0.031845
-0.062086 0.162339 -0.032345
-0.062088 0.162338 -0.032845
-0.061947 0.162339 -0.033345
-0.062091 0.162337 -0.033845
-0.062093 0.162336 -0.034345
-0.062094 0.162336 -0.034845
-0.062096 0.162335 -0.035345
-0.062097 0.162334 -0.035845
-0.061956 0.162335 -0.036345
-0.061958 0.162334 -0.036845
-0.061959 0.162333 -0.037345
-0.062104 0.162332 -0.037845
-0.062105 0.162331 -0.038345
-0.062107 0.162331 -0.038845
-0.062108 0.162330 -0.039345
-0.062252 0.162327 -0.039845
-0.062254 0.162327 -0.040345
-0.062256 0.162326 -0.040845
-0.062400 0.162324 -0.041344
-0.062401 0.162324 -0.041844
-0.062403 0.162323 -0.042344
-0.062404 0.162322 -0.042844
-0.062549 0.162320 -0.043344
-0.062550 0.162319 -0.043844
-0.062552 0.162318 -0.044344
-0.062696 0.162317 -0.044843
-0.062697 0.162316 -0.045343
-0.062699 0.162315 -0.045843
-0.062700 0.162315 -0.046343
-0.062702 0.162314 -0.046843
-0.062704 0.162313 -0.047343
-0.062705 0.162313 -0.047843
-0.062707 0.162312 -0.048343
-0.062708 0.162311 -0.048843
-0.062710 0.162311 -0.049343
-0.062711 0.162310 -0.049843
-0.062713 0.162309 -0.050343
-0.062714 0.162309 -0.050843
-0.062716 0.162308 -0.051343
-0.062718 0.162307 -0.051843
-0.062719 0.162307 -0.052343
-0.062863 0.162304 -0.052843
-0.062865 0.162304 -0.053343
-0.062866 0.162303 -0.053843
-0.062725 0.162304 -0.054343
-0.062870 0.162302 -0.054843
-0.062871 0.162301 -0.055343
-0.062873 0.162300 -0.055843
-0.062874 0.162300 -0.056343
-0.062876 0.162299 -0.056843
-0.062877 0.162298 -0.057343
-0.062879 0.162298 -0.057843
-0.062738 0.162299 -0.058343
-0.062882 0.162296 -0.058843
-0.046561 0.163320 0.006356
-0.043281 0.163350 0.005846
-0.042712 0.163355 0.005344
-0.041858 0.163362 0.004841
-0.041289 0.163367 0.004339
-0.040720 0.163371 0.003838
-0.040151 0.163376 0.003336
-0.039867 0.163379 0.002835
-0.039583 0.163381 0.002334
-0.039299 0.163382 0.001833
-0.039016 0.163384 0.001332
-0.038732 0.163386 0.000831
-0.038194 0.163390 0.000330
-0.037790 0.163393 -0.000172
-0.037252 0.163396 -0.000673
-0.036713 0.163400 -0.001175
-0.036175 0.163403 -0.001677
-0.035367 0.163409 -0.002179
-0.034288 0.163417 -0.002682
-0.033885 0.163419 -0.003184
-0.032941 0.163426 -0.003687
-0.032673 0.163427 -0.004188
-0.032270 0.163431 -0.004689
-0.029976 0.163448 -0.005196
-0.016757 0.163548 -0.008237
-0.016353 0.163550 -0.008738
-0.015815 0.163554 -0.009240
-0.015007 0.163559 -0.009743
-0.014738 0.163562 -0.010243
-0.014335 0.163564 -0.010745
-0.013931 0.163566 -0.011246
-0.013528 0.163569 -0.011747
-0.013260 0.163571 -0.012248
-0.012856 0.163573 -0.012749
-0.012588 0.163574 -0.013250
-0.012319 0.163576 -0.013751
-0.012186 0.163576 -0.014251
-0.012052 0.163577 -0.014752
-0.011919 0.163577 -0.015252
-0.011786 0.163577 -0.015753
-0.011652 0.163578 -0.016253
-0.011384 0.163579 -0.016754
-0.011250 0.163580 -0.017254
-0.011387 0.163577 -0.017754
-0.011253 0.163579 -0.018254
-0.011120 0.163579 -0.018755
-0.065328 0.163110 -0.019086
-0.065187 0.163111 -0.019586
-0.064903 0.163113 -0.020087
-0.064762 0.163114 -0.020588
-0.064764 0.163113 -0.021088
-0.064337 0.163116 -0.021589
-0.064196 0.163118 -0.022089
-0.064055 0.163118 -0.022590
-0.063914 0.163118 -0.023090
-0.063773 0.163119 -0.023591
-0.063632 0.163120 -0.024091
-0.063633 0.163119 -0.024591
-0.063492 0.163120 -0.025092
-0.063351 0.163121 -0.025592
-0.063353 0.163120 -0.026092
-0.063212 0.163120 -0.026593
-0.063071 0.163121 -0.027093
-0.062930 0.163122 -0.027593
-0.062788 0.163123 -0.028094
-0.062790 0.163122 -0.028594
-0.062791 0.163122 -0.029094
-0.062650 0.163122 -0.029594
-0.062509 0.163122 -0.030095
-0.062511 0.163122 -0.030595
-0.062370 0.163123 -0.031095
-0.062371 0.163122 -0.031595
-0.062373 0.163122 -0.032095
-0.062374 0.163121 -0.032595
-0.062376 0.163120 -0.033095
-0.062377 0.163120 -0.033595
-0.062379 0.163119 -0.034095
-0.062238 0.163119 -0.034596
-0.062239 0.163119 -0.035096
-0.062241 0.163118 -0.035596
-0.062243 0.163117 -0.036096
-0.062101 0.163118 -0.036596
-0.062103 0.163118 -0.037096
-0.062247 0.163115 -0.037596
-0.062106 0.163117 -0.038096
-0.062108 0.163116 -0.038596
-0.062252 0.163113 -0.039096
-0.062253 0.163113 -0.039596
-0.062255 0.163112 -0.040096
-0.062257 0.163111 -0.040596
-0.062258 0.163111 -0.041096
-0.062260 0.163110 -0.041596
-0.062261 0.163109 -0.042096
-0.062405 0.163108 -0.042595
-0.062407 0.163107 -0.043095
-0.062408 0.163106 -0.043595
-0.062410 0.163106 -0.044095
-0.062554 0.163103 -0.044595
-0.062556 0.163102 -0.045095
-0.062557 0.163102 -0.045595
-0.062559 0.163101 -0.046095
-0.062560 0.163100 -0.046595
-0.062562 0.163100 -0.047095
-0.062564 0.163099 -0.047595
-0.062565 0.163098 -0.048095
-0.062567 0.163098 -0.048595
-0.062568 0.163097 -0.049095
-0.062570 0.163096 -0.049595
-0.062571 0.163096 -0.050095
-0.062573 0.163095 -0.050595
-0.062574 0.163094 -0.051095
-0.062576 0.163094 -0.051595
-0.062578 0.163093 -0.052095
-0.062579 0.163092 -0.052595
-0.062581 0.163092 -0.053095
-0.062582 0.163091 -0.053595
-0.062584 0.163090 -0.054095
-0.062585 0.163090 -0.054595
-0.062729 0.163088 -0.055094
-0.062588 0.163088 -0.055595
-0.062590 0.163088 -0.056095
-0.062591 0.163087 -0.056595
-0.062593 0.163086 -0.057095
-0.062737 0.163085 -0.057594
-0.062596 0.163085 -0.058095
-0.062455 0.163086 -0.058595
-0.062599 0.163084 -0.059095
-0.043428 0.164124 0.005595
-0.042145 0.164134 0.005091
-0.041434 0.164140 0.004589
-0.040722 0.164146 0.004087
-0.040153 0.164151 0.003585
-0.039584 0.164155 0.003083
-0.039300 0.164157 0.002582
-0.039016 0.164158 0.002081
-0.038598 0.164161 0.001580
-0.038464 0.164162 0.001079
-0.038196 0.164163 0.000579
-0.037792 0.164165 0.000077
-0.037524 0.164166 -0.000423
-0.036985 0.164169 -0.000925
-0.036582 0.164173 -0.001426
-0.036044 0.164176 -0.001928
-0.035370 0.164180 -0.002430
-0.034697 0.164184 -0.002932
-0.034023 0.164188 -0.003434
-0.033080 0.164195 -0.003937
-0.032001 0.164202 -0.004441
-0.031733 0.164203 -0.004941
-0.030385 0.164212 -0.005446
-0.028901 0.164223 -0.005950
-0.028768 0.164223 -0.006451
-0.027824 0.164229 -0.006954
-0.025126 0.164248 -0.007462
-0.015549 0.164314 -0.009992
-0.014876 0.164319 -0.010494
-0.014337 0.164323 -0.010996
-0.013934 0.164325 -0.011497
-0.013396 0.164328 -0.011999
-0.012992 0.164330 -0.012500
-0.012724 0.164331 -0.013001
-0.012320 0.164333 -0.013502
-0.012052 0.164335 -0.014003
-0.011783 0.164336 -0.014504
-0.011650 0.164336 -0.015004
-0.011517 0.164337 -0.015504
-0.011248 0.164338 -0.016005
-0.011115 0.164339 -0.016506
-0.010981 0.164339 -0.017006
-0.010983 0.164339 -0.017506
-0.010849 0.164339 -0.018007
-0.010851 0.164338 -0.018506
-0.010582 0.164340 -0.019007
-0.010584 0.164339 -0.019507
-0.010720 0.164337 -0.020007
-0.065477 0.163894 -0.020336
-0.065478 0.163894 -0.020836
-0.065194 0.163896 -0.021337
-0.064911 0.163897 -0.021838
-0.064769 0.163898 -0.022339
-0.064628 0.163899 -0.022839
-0.064487 0.163899 -0.023340
-0.064489 0.163898 -0.023840
-0.064205 0.163901 -0.024340
-0.064064 0.163901 -0.024841
-0.063923 0.163901 -0.025341
-0.063782 0.163902 -0.025842
-0.063783 0.163902 -0.026342
-0.063642 0.163902 -0.026842
-0.063501 0.163902 -0.027343
-0.063360 0.163904 -0.027843
-0.063362 0.163903 -0.028343
-0.063220 0.163903 -0.028844
-0.063222 0.163903 -0.029344
-0.062938 0.163905 -0.029844
-0.062940 0.163904 -0.030344
-0.062941 0.163903 -0.030844
-0.062800 0.163904 -0.031345
-0.062802 0.163903 -0.031845
-0.062661 0.163903 -0.032345
-0.062662 0.163903 -0.032845
-0.062664 0.163902 -0.033345
-0.062523 0.163903 -0.033846
-0.062524 0.163903 -0.034346
-0.062526 0.163902 -0.034846
-0.062527 0.163901 -0.035346
-0.062529 0.163901 -0.035846
-0.062388 0.163901 -0.036346
-0.062389 0.163900 -0.036846
-0.062391 0.163900 -0.037346
-0.062250 0.163900 -0.037847
-0.062251 0.163899 -0.038347
-0.062396 0.163898 -0.038846
-0.062397 0.163897 -0.039346
-0.062399 0.163896 -0.039846
-0.062258 0.163897 -0.040347
-0.062259 0.163896 -0.040847
-0.062403 0.163894 -0.041346
-0.062262 0.163895 -0.041847
-0.062264 0.163894 -0.042347
-0.062408 0.163892 -0.042846
-0.062409 0.163892 -0.043346
-0.062411 0.163891 -0.043846
-0.062413 0.163890 -0.044346
-0.062414 0.163890 -0.044846
-0.062416 0.163889 -0.045346
-0.062417 0.163888 -0.045846
-0.062419 0.163888 -0.046346
-0.062563 0.163886 -0.046846
-0.062422 0.163886 -0.047346
-0.062566 0.163885 -0.047846
-0.062568 0.163884 -0.048346
-0.062427 0.163884 -0.048846
-0.062571 0.163883 -0.049346
-0.062430 0.163883 -0.049846
-0.062431 0.163882 -0.050346
-0.062433 0.163882 -0.050846
-0.062434 0.163881 -0.051346
-0.062436 0.163880 -0.051846
-0.062437 0.163880 -0.052346
-0.062439 0.163879 -0.052846
-0.062441 0.163878 -0.053346
-0.062299 0.163879 -0.053847
-0.062301 0.163878 -0.054347
-0.062303 0.163877 -0.054847
-0.062447 0.163876 -0.055346
-0.062306 0.163876 -0.055847
-0.062307 0.163875 -0.056347
-0.062309 0.163875 -0.056846
-0.062310 0.163874 -0.057346
-0.062312 0.163873 -0.057846
-0.062313 0.163873 -0.058346
-0.062315 0.163872 -0.058846
-0.062317 0.163871 -0.059346
-0.062461 0.163870 -0.059846
-0.043431 0.164899 0.005344
-0.041864 0.164912 0.004839
-0.041009 0.164918 0.004336
-0.040298 0.164923 0.003834
-0.039586 0.164929 0.003332
-0.039159 0.164931 0.002831
-0.038876 0.164933 0.002330
-0.038465 0.164936 0.001828
-0.038061 0.164938 0.001327
-0.037793 0.164939 0.000826
-0.037524 0.164940 0.000326
-0.037256 0.164942 -0.000175
-0.036987 0.164942 -0.000676
-0.036719 0.164943 -0.001177
-0.036316 0.164945 -0.001678
-0.035912 0.164947 -0.002179
-0.035104 0.164952 -0.002682
-0.034970 0.164953 -0.003182
-0.033892 0.164959 -0.003686
-0.033083 0.164964 -0.004188
-0.032545 0.164967 -0.004690
-0.031466 0.164974 -0.005193
-0.030928 0.164977 -0.005695
-0.029310 0.164987 -0.006200
-0.028771 0.164990 -0.006702
-0.028098 0.164994 -0.007204
-0.027694 0.164996 -0.007705
-0.025941 0.165007 -0.008211
-0.025402 0.165010 -0.008712
-0.023919 0.165019 -0.009217
-0.022705 0.165026 -0.009721
-0.021222 0.165036 -0.010225
-0.014880 0.165077 -0.011245
-0.014072 0.165081 -0.011747
-0.013533 0.165085 -0.012249
-0.012995 0.165088 -0.012751
-0.012591 0.165090 -0.013252
-0.012323 0.165091 -0.013753
-0.011919 0.165093 -0.014254
-0.011516 0.165095 -0.014755
-0.011382 0.165095 -0.015256
-0.011114 0.165096 -0.015757
-0.010981 0.165096 -0.016257
-0.010847 0.165097 -0.016758
-0.010579 0.165098 -0.017258
-0.010580 0.165097 -0.017758
-0.010582 0.165097 -0.018258
-0.010448 0.165097 -0.018759
-0.010315 0.165097 -0.019259
-0.010181 0.165097 -0.019760
-0.010048 0.165098 -0.020260
-0.010050 0.165097 -0.020760
-0.010321 0.165094 -0.021259
-0.065625 0.164679 -0.021587
-0.065626 0.164678 -0.022087
-0.065485 0.164678 -0.022588
-0.065201 0.164680 -0.023088
-0.065060 0.164681 -0.023589
-0.064777 0.164682 -0.024090
-0.064778 0.164681 -0.024590
-0.064637 0.164682 -0.025090
-0.064496 0.164683 -0.025591
-0.064355 0.164683 -0.026091
-0.064214 0.164684 -0.026591
-0.064073 0.164684 -0.027092
-0.064074 0.164683 -0.027592
-0.063933 0.164684 -0.028092
-0.063649 0.164686 -0.028593
-0.063508 0.164686 -0.029094
-0.063652 0.164684 -0.029593
-0.063511 0.164685 -0.030094
-0.063370 0.164686 -0.030594
-0.063372 0.164685 -0.031094
-0.063231 0.164686 -0.031595
-0.063090 0.164686 -0.032095
-0.063091 0.164685 -0.032595
-0.062950 0.164685 -0.033095
-0.062952 0.164685 -0.033595
-0.062953 0.164684 -0.034095
-0.062812 0.164685 -0.034596
-0.062814 0.164685 -0.035096
-0.062815 0.164684 -0.035596
-0.062674 0.164684 -0.036096
-0.062676 0.164684 -0.036596
-0.062535 0.164684 -0.037097
-0.062536 0.164683 -0.037597
-0.062680 0.164682 -0.038096
-0.062539 0.164682 -0.038597
-0.062541 0.164681 -0.039097
-0.062685 0.164680 -0.039596
-0.062544 0.164680 -0.040097
-0.062403 0.164680 -0.040597
-0.062404 0.164680 -0.041097
-0.062406 0.164679 -0.041597
-0.062407 0.164678 -0.042097
-0.062409 0.164678 -0.042597
-0.062411 0.164677 -0.043097
-0.062412 0.164676 -0.043597
-0.062414 0.164676 -0.044097
-0.062415 0.164675 -0.044597
-0.062417 0.164674 -0.045097
-0.062418 0.164674 -0.045597
-0.062420 0.164673 -0.046097
-0.062564 0.164671 -0.046597
-0.062423 0.164672 -0.047097
-0.062424 0.164671 -0.047597
-0.062426 0.164670 -0.048097
-0.062428 0.164670 -0.048597
-0.062429 0.164669 -0.049097
-0.062431 0.164668 -0.049597
-0.062290 0.164669 -0.050098
-0.062291 0.164668 -0.050598
-0.062293 0.164667 -0.051098
-0.062294 0.164667 -0.051598
-0.062296 0.164666 -0.052098
-0.062297 0.164665 -0.052598
-0.062299 0.164665 -0.053098
-0.062300 0.164664 -0.053598
-0.062159 0.164665 -0.054098
-0.062161 0.164665 -0.054598
-0.062162 0.164664 -0.055098
-0.062164 0.164663 -0.055598
-0.062166 0.164663 -0.056098
-0.062024 0.164663 -0.056598
-0.062026 0.164662 -0.057098
-0.062028 0.164662 -0.057598
-0.062029 0.164661 -0.058098
-0.062031 0.164660 -0.058598
-0.062175 0.164659 -0.059098
-0.062034 0.164659 -0.059598
-0.062035 0.164658 -0.060098
-0.041724 0.165687 0.004588
-0.040442 0.165696 0.004084
-0.039731 0.165701 0.003581
-0.039162 0.165705 0.003080
-0.038735 0.165708 0.002578
-0.038332 0.165710 0.002077
-0.037928 0.165711 0.001576
-0.037525 0.165713 0.001075
-0.037256 0.165715 0.000574
-0.036853 0.165716 0.000072
-0.036719 0.165716 -0.000428
-0.036451 0.165717 -0.000929
-0.036183 0.165718 -0.001430
-0.035914 0.165719 -0.001930
-0.035376 0.165722 -0.002432
-0.035107 0.165723 -0.002933
-0.034704 0.165724 -0.003434
-0.033895 0.165729 -0.003937
-0.033222 0.165732 -0.004439
-0.032683 0.165735 -0.004941
-0.031470 0.165741 -0.005444
-0.030931 0.165745 -0.005946
-0.029853 0.165750 -0.006449
-0.029044 0.165754 -0.006952
-0.028371 0.165759 -0.007454
-0.027697 0.165762 -0.007956
-0.026079 0.165771 -0.008461
-0.026080 0.165771 -0.008961
-0.024327 0.165780 -0.009467
-0.022573 0.165790 -0.009972
-0.021765 0.165795 -0.010475
-0.022306 0.165791 -0.010973
-0.020013 0.165804 -0.011480
-0.014884 0.165835 -0.011996
-0.013806 0.165841 -0.012499
-0.013402 0.165843 -0.013001
-0.012999 0.165845 -0.013502
-0.012325 0.165848 -0.014004
-0.011787 0.165851 -0.014506
-0.011383 0.165852 -0.015007
-0.011250 0.165852 -0.015507
-0.010846 0.165855 -0.016009
-0.010713 0.165855 -0.016509
-0.010445 0.165856 -0.017010
-0.010311 0.165855 -0.017510
-0.010178 0.165856 -0.018011
-0.010179 0.165855 -0.018511
-0.010046 0.165855 -0.019011
-0.010047 0.165855 -0.019511
-0.009914 0.165855 -0.020011
-0.009915 0.165854 -0.020511
-0.009782 0.165855 -0.021012
-0.009783 0.165854 -0.021512
-0.009920 0.165852 -0.022011
-0.010462 0.165849 -0.022510
-0.066201 0.165459 -0.022836
-0.065917 0.165461 -0.023337
-0.065633 0.165462 -0.023838
-0.065492 0.165463 -0.024339
-0.065351 0.165463 -0.024839
-0.065353 0.165463 -0.025339
-0.065069 0.165464 -0.025840
-0.064928 0.165464 -0.026340
-0.064787 0.165465 -0.026841
-0.064788 0.165465 -0.027341
-0.064505 0.165466 -0.027842
-0.064364 0.165466 -0.028342
-0.064222 0.165467 -0.028843
-0.064081 0.165467 -0.029343
-0.063940 0.165468 -0.029843
-0.063942 0.165467 -0.030343
-0.063801 0.165468 -0.030844
-0.063802 0.165467 -0.031344
-0.063661 0.165467 -0.031844
-0.063520 0.165468 -0.032345
-0.063522 0.165467 -0.032845
-0.063523 0.165466 -0.033345
-0.063382 0.165467 -0.033845
-0.063241 0.165467 -0.034346
-0.063243 0.165466 -0.034846
-0.063101 0.165468 -0.035346
-0.063103 0.165467 -0.035846
-0.063105 0.165466 -0.036346
-0.062964 0.165466 -0.036846
-0.062822 0.165467 -0.037347
-0.062967 0.165465 -0.037846
-0.062968 0.165465 -0.038346
-0.062827 0.165465 -0.038847
-0.062829 0.165464 -0.039347
-0.062830 0.165463 -0.039847
-0.062689 0.165464 -0.040347
-0.062691 0.165463 -0.040847
-0.062550 0.165463 -0.041348
-0.062694 0.165462 -0.041847
-0.062553 0.165462 -0.042348
-0.062554 0.165461 -0.042848
-0.062556 0.165461 -0.043348
-0.062557 0.165460 -0.043848
-0.062416 0.165460 -0.044348
-0.062418 0.165460 -0.044848
-0.062419 0.165459 -0.045348
-0.062421 0.165458 -0.045848
-0.062423 0.165458 -0.046348
-0.062424 0.165457 -0.046848
-0.062426 0.165456 -0.047348
-0.062427 0.165456 -0.047848
-0.062429 0.165455 -0.048348
-0.062430 0.165454 -0.048848
-0.062432 0.165454 -0.049348
-0.062291 0.165455 -0.049849
-0.062292 0.165454 -0.050349
-0.062294 0.165454 -0.050849
-0.062295 0.165453 -0.051349
-0.062154 0.165453 -0.051849
-0.062156 0.165453 -0.052349
-0.062157 0.165452 -0.052849
-0.062159 0.165451 -0.053349
-0.062018 0.165452 -0.053849
-0.062019 0.165451 -0.054349
-0.062021 0.165450 -0.054849
-0.062022 0.165450 -0.055349
-0.061881 0.165450 -0.055850
-0.061883 0.165449 -0.056350
-0.061742 0.165449 -0.056850
-0.061886 0.165448 -0.057350
-0.061888 0.165447 -0.057850
-0.061747 0.165447 -0.058350
-0.061891 0.165446 -0.058850
-0.061892 0.165445 -0.059350
-0.061894 0.165445 -0.059850
-0.061895 0.165444 -0.060350
-0.041443 0.166463 0.004336
-0.040161 0.166472 0.003832
-0.039306 0.166478 0.003329
-0.038737 0.166481 0.002827
-0.038334 0.166482 0.002326
-0.037930 0.166484 0.001825
-0.037392 0.166487 0.001323
-0.037123 0.166488 0.000822
-0.036855 0.166488 0.000321
-0.036452 0.166490 -0.000180
-0.036183 0.166490 -0.000681
-0.035915 0.166492 -0.001182
-0.035511 0.166493 -0.001683
-0.035378 0.166493 -0.002183
-0.034974 0.166494 -0.002684
-0.034706 0.166496 -0.003185
-0.034302 0.166497 -0.003687
-0.033629 0.166500 -0.004189
-0.033360 0.166501 -0.004689
-0.032417 0.166506 -0.005192
-0.031608 0.166509 -0.005695
-0.030935 0.166512 -0.006197
-0.029856 0.166518 -0.006700
-0.029453 0.166519 -0.007202
-0.028644 0.166523 -0.007704
-0.027701 0.166528 -0.008207
-0.026622 0.166533 -0.008710
-0.025948 0.166536 -0.009213
-0.024735 0.166542 -0.009716
-0.023791 0.166547 -0.010219
-0.022443 0.166554 -0.010723
-0.021229 0.166560 -0.011227
-0.020556 0.166563 -0.011729
-0.020152 0.166564 -0.012231
-0.017319 0.166579 -0.012739
-0.014215 0.166597 -0.013249
-0.013541 0.166600 -0.013751
-0.012733 0.166603 -0.014254
-0.012194 0.166606 -0.014755
-0.011521 0.166609 -0.015257
-0.011252 0.166609 -0.015758
-0.010849 0.166611 -0.016260
-0.010580 0.166612 -0.016760
-0.010312 0.166613 -0.017261
-0.010178 0.166613 -0.017762
-0.010045 0.166612 -0.018262
-0.009912 0.166613 -0.018762
-0.009778 0.166613 -0.019263
-0.009645 0.166613 -0.019763
-0.009646 0.166613 -0.020263
-0.009648 0.166612 -0.020763
-0.009514 0.166612 -0.021264
-0.009651 0.166611 -0.021763
-0.009517 0.166611 -0.022264
-0.009519 0.166610 -0.022764
-0.009655 0.166609 -0.023263
-0.066633 0.166242 -0.023586
-0.066492 0.166243 -0.024086
-0.066208 0.166244 -0.024587
-0.065924 0.166245 -0.025088
-0.065783 0.166245 -0.025589
-0.065642 0.166246 -0.026089
-0.065501 0.166247 -0.026590
-0.065360 0.166247 -0.027090
-0.065219 0.166248 -0.027590
-0.065078 0.166248 -0.028091
-0.064937 0.166248 -0.028591
-0.064796 0.166248 -0.029092
-0.064654 0.166249 -0.029592
-0.064513 0.166249 -0.030093
-0.064515 0.166248 -0.030593
-0.064374 0.166249 -0.031093
-0.064375 0.166248 -0.031593
-0.064092 0.166250 -0.032094
-0.064093 0.166250 -0.032594
-0.063952 0.166250 -0.033094
-0.063811 0.166250 -0.033595
-0.063813 0.166249 -0.034095
-0.063671 0.166250 -0.034595
-0.063673 0.166249 -0.035095
-0.063532 0.166249 -0.035596
-0.063534 0.166249 -0.036096
-0.063535 0.166248 -0.036596
-0.063394 0.166248 -0.037096
-0.063396 0.166248 -0.037596
-0.063254 0.166248 -0.038097
-0.063256 0.166247 -0.038597
-0.063258 0.166247 -0.039097
-0.063259 0.166246 -0.039597
-0.063118 0.166246 -0.040097
-0.063120 0.166246 -0.040597
-0.062979 0.166246 -0.041097
-0.062837 0.166246 -0.041598
-0.062839 0.166245 -0.042098
-0.062840 0.166245 -0.042598
-0.062699 0.166246 -0.043098
-0.062701 0.166245 -0.043598
-0.062703 0.166245 -0.044098
-0.062561 0.166245 -0.044599
-0.062563 0.166244 -0.045099
-0.062565 0.166244 -0.045599
-0.062424 0.166244 -0.046099
-0.062425 0.166243 -0.046599
-0.062427 0.166243 -0.047099
-0.062428 0.166242 -0.047599
-0.062430 0.166241 -0.048099
-0.062431 0.166241 -0.048599
-0.062433 0.166240 -0.049099
-0.062292 0.166240 -0.049600
-0.062293 0.166240 -0.050100
-0.062295 0.166239 -0.050600
-0.062154 0.166239 -0.051100
-0.062155 0.166239 -0.051600
-0.062157 0.166238 -0.052100
-0.062158 0.166237 -0.052600
-0.062017 0.166238 -0.053101
-0.062019 0.166237 -0.053601
-0.062020 0.166236 -0.054101
-0.061879 0.166237 -0.054601
-0.061881 0.166236 -0.055101
-0.061740 0.166236 -0.055601
-0.061741 0.166235 -0.056101
-0.061743 0.166235 -0.056601
-0.061602 0.166235 -0.057102
-0.061603 0.166234 -0.057602
-0.061605 0.166234 -0.058102
-0.061607 0.166233 -0.058602
-0.061608 0.166232 -0.059102
-0.061752 0.166231 -0.059601
-0.061754 0.166230 -0.060101
-0.061613 0.166230 -0.060602
-0.041161 0.167240 0.004084
-0.039594 0.167249 0.003579
-0.038882 0.167253 0.003077
-0.038336 0.167256 0.002575
-0.037933 0.167257 0.002074
-0.037394 0.167259 0.001572
-0.036990 0.167260 0.001071
-0.036722 0.167261 0.000570
-0.036319 0.167263 0.000069
-0.036050 0.167263 -0.000432
-0.035647 0.167265 -0.000933
-0.035378 0.167265 -0.001434
-0.035110 0.167265 -0.001935
-0.034841 0.167267 -0.002436
-0.034573 0.167267 -0.002937
-0.034169 0.167269 -0.003438
-0.033766 0.167270 -0.003939
-0.033362 0.167271 -0.004440
-0.032959 0.167273 -0.004942
-0.032285 0.167276 -0.005444
-0.031611 0.167278 -0.005946
-0.031073 0.167280 -0.006448
-0.029994 0.167285 -0.006951
-0.029591 0.167286 -0.007452
-0.028647 0.167290 -0.007955
-0.027839 0.167293 -0.008458
-0.027030 0.167297 -0.008960
-0.026357 0.167299 -0.009462
-0.025008 0.167306 -0.009966
-0.023929 0.167310 -0.010470
-0.023256 0.167313 -0.010972
-0.021907 0.167319 -0.011476
-0.021234 0.167322 -0.011978
-0.020560 0.167324 -0.012480
-0.018267 0.167335 -0.012987
-0.018268 0.167335 -0.013487
-0.015569 0.167347 -0.013996
-0.013275 0.167358 -0.014503
-0.012737 0.167360 -0.015005
-0.012063 0.167363 -0.015507
-0.011390 0.167365 -0.016009
-0.010986 0.167367 -0.016510
-0.010718 0.167367 -0.017011
-0.010314 0.167368 -0.017512
-0.010046 0.167370 -0.018013
-0.009912 0.167369 -0.018513
-0.009644 0.167370 -0.019014
-0.009645 0.167370 -0.019514
-0.009512 0.167369 -0.020015
-0.009514 0.167368 -0.020515
-0.009380 0.167368 -0.021015
-0.009382 0.167368 -0.021515
-0.009383 0.167367 -0.022015
-0.009250 0.167367 -0.022516
-0.009386 0.167366 -0.023015
-0.009388 0.167365 -0.023515
-0.009119 0.167366 -0.024016
-0.067064 0.167026 -0.024336
-0.066781 0.167027 -0.024837
-0.066925 0.167025 -0.025336
-0.066641 0.167026 -0.025837
-0.066215 0.167029 -0.026338
-0.066074 0.167029 -0.026839
-0.065933 0.167029 -0.027339
-0.065792 0.167030 -0.027840
-0.065651 0.167030 -0.028340
-0.065510 0.167030 -0.028841
-0.065368 0.167030 -0.029341
-0.065227 0.167031 -0.029841
-0.065229 0.167030 -0.030341
-0.065088 0.167030 -0.030842
-0.064947 0.167031 -0.031342
-0.064806 0.167032 -0.031843
-0.064807 0.167031 -0.032343
-0.064524 0.167032 -0.032844
-0.064382 0.167033 -0.033344
-0.064527 0.167031 -0.033844
-0.064243 0.167032 -0.034345
-0.064245 0.167032 -0.034845
-0.064103 0.167032 -0.035345
-0.064105 0.167031 -0.035845
-0.064107 0.167031 -0.036345
-0.063965 0.167031 -0.036845
-0.063967 0.167030 -0.037345
-0.063683 0.167031 -0.037846
-0.063685 0.167031 -0.038346
-0.063686 0.167030 -0.038846
-0.063688 0.167029 -0.039346
-0.063547 0.167030 -0.039847
-0.063548 0.167029 -0.040347
-0.063407 0.167029 -0.040847
-0.063266 0.167030 -0.041348
-0.063268 0.167029 -0.041848
-0.063127 0.167029 -0.042348
-0.062986 0.167030 -0.042849
-0.062987 0.167029 -0.043349
-0.062989 0.167028 -0.043848
-0.062848 0.167028 -0.044349
-0.062707 0.167029 -0.044849
-0.062708 0.167028 -0.045349
-0.062710 0.167027 -0.045849
-0.062569 0.167028 -0.046350
-0.062428 0.167028 -0.046850
-0.062429 0.167027 -0.047350
-0.062431 0.167027 -0.047850
-0.062432 0.167026 -0.048350
-0.062291 0.167026 -0.048851
-0.062293 0.167026 -0.049351
-0.062294 0.167025 -0.049851
-0.062296 0.167024 -0.050351
-0.062297 0.167024 -0.050851
-0.062156 0.167024 -0.051351
-0.062158 0.167023 -0.051851
-0.062159 0.167023 -0.052351
-0.062018 0.167023 -0.052852
-0.062020 0.167022 -0.053352
-0.062021 0.167022 -0.053852
-0.061880 0.167022 -0.054352
-0.061739 0.167022 -0.054852
-0.061741 0.167021 -0.055352
-0.061600 0.167022 -0.055853
-0.061601 0.167021 -0.056353
-0.061460 0.167021 -0.056853
-0.061462 0.167021 -0.057353
-0.061463 0.167020 -0.057853
-0.061465 0.167019 -0.058353
-0.061466 0.167019 -0.058853
-0.061468 0.167018 -0.059353
-0.061470 0.167017 -0.059853
-0.061614 0.167016 -0.060353
-0.061330 0.167017 -0.060854
-0.039312 0.168024 0.003327
-0.038338 0.168029 0.002824
-0.038070 0.168029 0.002323
-0.037396 0.168031 0.001821
-0.036993 0.168032 0.001320
-0.036589 0.168034 0.000819
-0.036320 0.168035 0.000318
-0.035917 0.168035 -0.000184
-0.035513 0.168036 -0.000685
-0.035245 0.168037 -0.001186
-0.034976 0.168038 -0.001686
-0.034573 0.168039 -0.002188
-0.034304 0.168039 -0.002689
-0.034036 0.168039 -0.003189
-0.033633 0.168041 -0.003691
-0.033229 0.168042 -0.004192
-0.032960 0.168043 -0.004693
-0.032557 0.168044 -0.005194
-0.032018 0.168045 -0.005696
-0.031480 0.168047 -0.006197
-0.030806 0.168049 -0.006699
-0.030133 0.168052 -0.007202
-0.029324 0.168055 -0.007704
-0.028786 0.168057 -0.008206
-0.027842 0.168060 -0.008709
