# .PCD v.7 - Point Cloud Data file format
VERSION .7
FIELDS x y z
SIZE 4 4 4
TYPE F F F
COUNT 1 1 1
WIDTH 1677
HEIGHT 1
POINTS 1677
DATA ascii
-0.089877 0.146837 0.027393
-0.089537 0.146840 0.027893
-0.089311 0.146843 0.028393
-0.088971 0.146847 0.028892
-0.088858 0.146850 0.029392
-0.088518 0.146855 0.029892
-0.088285 0.146856 0.030392
-0.088045 0.146857 0.030892
-0.087925 0.146859 0.031392
-0.087566 0.146858 0.031892
-0.087326 0.146858 0.032392
-0.087206 0.146860 0.032892
-0.086847 0.146859 0.033392
-0.086607 0.146860 0.033892
-0.086247 0.146859 0.034392
-0.085888 0.146858 0.034892
-0.085528 0.146857 0.035392
-0.085288 0.146858 0.035891
-0.084809 0.146855 0.036391
-0.084329 0.146854 0.036891
-0.083730 0.146851 0.037391
-0.083011 0.146847 0.037891
-0.082772 0.146847 0.038391
-0.082053 0.146843 0.038891
-0.081453 0.146840 0.039391
-0.080854 0.146837 0.039890
-0.080375 0.146836 0.040390
-0.079656 0.146832 0.040890
-0.079176 0.146829 0.041390
-0.077619 0.146817 0.041890
-0.077379 0.146818 0.042390
-0.074982 0.146798 0.042889
-0.071050 0.147071 -0.029364
-0.071289 0.147076 -0.028864
-0.071649 0.147082 -0.028364
-0.071888 0.147087 -0.027864
-0.071888 0.147090 -0.027364
-0.071768 0.147091 -0.026864
-0.071768 0.147094 -0.026364
-0.071768 0.147096 -0.025864
-0.072007 0.147101 -0.025364
-0.072127 0.147105 -0.024864
-0.072247 0.147109 -0.024364
-0.072247 0.147112 -0.023864
-0.072366 0.147115 -0.023364
-0.072366 0.147118 -0.022864
-0.072606 0.147123 -0.022364
-0.072606 0.147125 -0.021864
-0.072725 0.147130 -0.021364
-0.072965 0.147134 -0.020864
-0.073084 0.147137 -0.020364
-0.073204 0.147142 -0.019864
-0.073204 0.147144 -0.019364
-0.073324 0.147148 -0.018864
-0.073443 0.147152 -0.018364
-0.073683 0.147156 -0.017864
-0.073803 0.147161 -0.017364
-0.073922 0.147164 -0.016864
-0.074042 0.147168 -0.016364
-0.074162 0.147171 -0.015864
-0.074281 0.147175 -0.015364
-0.074281 0.147178 -0.014864
-0.074401 0.147181 -0.014364
-0.074640 0.147187 -0.013864
-0.074640 0.147190 -0.013364
-0.074760 0.147193 -0.012864
-0.074880 0.147197 -0.012364
-0.075119 0.147202 -0.011864
-0.075239 0.147205 -0.011364
-0.075358 0.147209 -0.010864
-0.075478 0.147212 -0.010364
-0.075718 0.147218 -0.009864
-0.075837 0.147221 -0.009364
-0.076077 0.147226 -0.008864
-0.076197 0.147230 -0.008364
-0.076436 0.147235 -0.007864
-0.076556 0.147238 -0.007363
-0.076675 0.147242 -0.006863
-0.076795 0.147246 -0.006363
-0.076915 0.147250 -0.005863
-0.077034 0.147254 -0.005363
-0.077274 0.147259 -0.004863
-0.077394 0.147262 -0.004363
-0.077633 0.147267 -0.003863
-0.077993 0.147273 -0.003363
-0.078352 0.147279 -0.002863
-0.078831 0.147286 -0.002363
-0.079430 0.147294 -0.001863
-0.079909 0.147301 -0.001363
-0.080388 0.147307 -0.000863
-0.080867 0.147314 -0.000363
-0.081227 0.147320 0.000137
-0.081586 0.147327 0.000637
-0.081945 0.147332 0.001138
-0.082185 0.147337 0.001638
-0.082424 0.147341 0.002138
-0.082784 0.147348 0.002638
-0.083023 0.147352 0.003138
-0.083382 0.147358 0.003638
-0.083742 0.147364 0.004138
-0.084101 0.147370 0.004638
-0.084460 0.147376 0.005138
-0.084940 0.147383 0.005638
-0.085299 0.147389 0.006138
-0.085778 0.147396 0.006638
-0.086257 0.147403 0.007138
-0.086736 0.147409 0.007638
-0.087335 0.147418 0.008139
-0.087934 0.147426 0.008639
-0.088413 0.147433 0.009139
-0.088866 0.147433 0.009639
-0.089205 0.147435 0.010139
-0.089545 0.147436 0.010639
-0.089884 0.147437 0.011139
-0.090110 0.147439 0.011639
-0.090337 0.147441 0.012139
-0.090450 0.147443 0.012639
-0.090676 0.147444 0.013139
-0.090789 0.147446 0.013639
-0.090902 0.147448 0.014139
-0.091128 0.147450 0.014640
-0.091241 0.147452 0.015140
-0.091354 0.147455 0.015640
-0.091354 0.147457 0.016140
-0.091580 0.147459 0.016640
-0.091580 0.147462 0.017140
-0.091580 0.147464 0.017640
-0.091693 0.147467 0.018140
-0.091693 0.147469 0.018640
-0.091693 0.147472 0.019140
-0.091806 0.147474 0.019640
-0.091693 0.147477 0.020140
-0.091693 0.147480 0.020640
-0.091579 0.147483 0.021140
-0.091579 0.147486 0.021640
-0.091579 0.147489 0.022140
-0.091466 0.147492 0.022640
-0.091352 0.147495 0.023139
-0.091239 0.147498 0.023639
-0.091239 0.147501 0.024139
-0.091012 0.147504 0.024639
-0.090673 0.147508 0.025139
-0.090446 0.147513 0.025639
-0.090220 0.147516 0.026139
-0.089993 0.147520 0.026639
-0.089654 0.147524 0.027139
-0.089427 0.147528 0.027639
-0.089087 0.147532 0.028139
-0.088861 0.147535 0.028639
-0.088634 0.147539 0.029139
-0.088288 0.147541 0.029639
-0.088048 0.147542 0.030138
-0.087809 0.147542 0.030638
-0.087569 0.147543 0.031138
-0.087209 0.147542 0.031638
-0.087089 0.147544 0.032138
-0.086730 0.147544 0.032638
-0.086370 0.147544 0.033138
-0.086130 0.147544 0.033638
-0.085891 0.147544 0.034138
-0.085531 0.147544 0.034638
-0.085171 0.147543 0.035138
-0.084692 0.147542 0.035638
-0.084213 0.147541 0.036138
-0.083613 0.147538 0.036637
-0.083014 0.147535 0.037137
-0.082415 0.147532 0.037637
-0.081935 0.147531 0.038137
-0.081336 0.147528 0.038637
-0.080857 0.147526 0.039137
-0.080258 0.147523 0.039637
-0.079778 0.147522 0.040137
-0.078820 0.147517 0.040636
-0.077501 0.147508 0.041136
-0.076902 0.147505 0.041636
-0.076303 0.147502 0.042136
-0.071053 0.147745 -0.034118
-0.071533 0.147752 -0.033618
-0.071053 0.147750 -0.033118
-0.071892 0.147760 -0.032618
-0.071892 0.147762 -0.032118
-0.071892 0.147765 -0.031618
-0.072131 0.147770 -0.031118
-0.072370 0.147774 -0.030618
-0.072490 0.147778 -0.030118
-0.072730 0.147782 -0.029618
-0.072849 0.147786 -0.029118
-0.072729 0.147788 -0.028618
-0.072849 0.147792 -0.028118
-0.072849 0.147794 -0.027618
-0.072849 0.147797 -0.027118
-0.072729 0.147798 -0.026618
-0.072729 0.147801 -0.026118
-0.072609 0.147803 -0.025618
-0.072729 0.147806 -0.025118
-0.072728 0.147809 -0.024618
-0.072848 0.147813 -0.024118
-0.072968 0.147816 -0.023618
-0.072968 0.147819 -0.023118
-0.073207 0.147824 -0.022618
-0.073207 0.147827 -0.022118
-0.073327 0.147831 -0.021618
-0.073446 0.147834 -0.021118
-0.073566 0.147838 -0.020618
-0.073686 0.147841 -0.020118
-0.073805 0.147846 -0.019618
-0.073925 0.147849 -0.019118
-0.074045 0.147853 -0.018618
-0.074165 0.147856 -0.018118
-0.074284 0.147860 -0.017618
-0.074404 0.147864 -0.017118
-0.074524 0.147868 -0.016618
-0.074763 0.147872 -0.016117
-0.074883 0.147876 -0.015617
-0.074883 0.147878 -0.015117
-0.075122 0.147883 -0.014617
-0.075122 0.147886 -0.014117
-0.075122 0.147888 -0.013617
-0.075361 0.147893 -0.013117
-0.075481 0.147897 -0.012617
-0.075481 0.147900 -0.012117
-0.075721 0.147905 -0.011617
-0.075840 0.147908 -0.011117
-0.075960 0.147912 -0.010617
-0.076199 0.147917 -0.010117
-0.076199 0.147920 -0.009617
-0.076439 0.147924 -0.009117
-0.076439 0.147927 -0.008617
-0.076558 0.147930 -0.008117
-0.076798 0.147935 -0.007617
-0.076917 0.147938 -0.007117
-0.077037 0.147942 -0.006617
-0.077157 0.147945 -0.006117
-0.077277 0.147950 -0.005617
-0.077396 0.147953 -0.005117
-0.077516 0.147957 -0.004617
-0.077636 0.147960 -0.004117
-0.077755 0.147964 -0.003617
-0.077995 0.147969 -0.003117
-0.078474 0.147976 -0.002617
-0.078833 0.147981 -0.002117
-0.079313 0.147988 -0.001617
-0.079912 0.147996 -0.001117
-0.080271 0.148001 -0.000617
-0.080630 0.148007 -0.000116
-0.080989 0.148013 0.000384
-0.081349 0.148018 0.000884
-0.081708 0.148024 0.001384
-0.082068 0.148029 0.001884
-0.082427 0.148036 0.002384
-0.082786 0.148041 0.002884
-0.083265 0.148048 0.003384
-0.083505 0.148052 0.003884
-0.083984 0.148059 0.004384
-0.084463 0.148066 0.004884
-0.084822 0.148071 0.005384
-0.085182 0.148077 0.005884
-0.085541 0.148082 0.006385
-0.086020 0.148089 0.006885
-0.086499 0.148096 0.007385
-0.086979 0.148103 0.007885
-0.087578 0.148111 0.008385
-0.088057 0.148118 0.008885
-0.088416 0.148123 0.009385
-0.088982 0.148123 0.009885
-0.089208 0.148124 0.010385
-0.089661 0.148125 0.010885
-0.089887 0.148127 0.011386
-0.090226 0.148128 0.011886
-0.090452 0.148129 0.012386
-0.090565 0.148131 0.012886
-0.090792 0.148133 0.013386
-0.090905 0.148135 0.013886
-0.091018 0.148137 0.014386
-0.091244 0.148139 0.014886
-0.091244 0.148142 0.015386
-0.091357 0.148144 0.015886
-0.091470 0.148145 0.016386
-0.091583 0.148147 0.016886
-0.091583 0.148150 0.017386
-0.091583 0.148153 0.017886
-0.091696 0.148155 0.018386
-0.091696 0.148158 0.018886
-0.091582 0.148161 0.019386
-0.091582 0.148163 0.019886
-0.091582 0.148166 0.020386
-0.091469 0.148169 0.020886
-0.091469 0.148172 0.021386
-0.091355 0.148176 0.021886
-0.091242 0.148179 0.022386
-0.091129 0.148182 0.022886
-0.091015 0.148185 0.023386
-0.090902 0.148189 0.023886
-0.090789 0.148192 0.024386
-0.090449 0.148196 0.024885
-0.090223 0.148200 0.025385
-0.089996 0.148204 0.025885
-0.089657 0.148208 0.026385
-0.089430 0.148212 0.026885
-0.089204 0.148215 0.027385
-0.088864 0.148220 0.027885
-0.088637 0.148224 0.028385
-0.088291 0.148227 0.028885
-0.088051 0.148228 0.029385
-0.087692 0.148227 0.029885
-0.087452 0.148228 0.030385
-0.087212 0.148228 0.030885
-0.086853 0.148228 0.031384
-0.086733 0.148230 0.031884
-0.086373 0.148230 0.032384
-0.086013 0.148229 0.032884
-0.085774 0.148229 0.033384
-0.085414 0.148230 0.033884
-0.085054 0.148229 0.034384
-0.084575 0.148227 0.034884
-0.083976 0.148225 0.035384
-0.083496 0.148224 0.035884
-0.082897 0.148222 0.036384
-0.082298 0.148219 0.036883
-0.081818 0.148218 0.037383
-0.081339 0.148217 0.037883
-0.080740 0.148215 0.038383
-0.080260 0.148213 0.038883
-0.079541 0.148210 0.039383
-0.078583 0.148205 0.039883
-0.077504 0.148199 0.040382
-0.076665 0.148194 0.040882
-0.076066 0.148192 0.041382
-0.070937 0.148422 -0.037872
-0.071656 0.148430 -0.037372
-0.071895 0.148435 -0.036872
-0.072135 0.148439 -0.036372
-0.072254 0.148444 -0.035872
-0.072614 0.148449 -0.035371
-0.072614 0.148452 -0.034871
-0.072733 0.148455 -0.034371
-0.072973 0.148459 -0.033871
-0.073212 0.148464 -0.033371
-0.073212 0.148467 -0.032871
-0.073212 0.148470 -0.032371
-0.073451 0.148474 -0.031871
-0.073571 0.148477 -0.031371
-0.073451 0.148480 -0.030871
-0.073571 0.148483 -0.030371
-0.073691 0.148487 -0.029871
-0.073691 0.148490 -0.029371
-0.073571 0.148491 -0.028871
-0.073570 0.148494 -0.028371
-0.073690 0.148498 -0.027871
-0.073690 0.148500 -0.027371
-0.073690 0.148503 -0.026871
-0.073690 0.148506 -0.026371
-0.073690 0.148508 -0.025871
-0.073689 0.148511 -0.025371
-0.073689 0.148514 -0.024871
-0.073569 0.148515 -0.024371
-0.073689 0.148519 -0.023871
-0.073689 0.148522 -0.023371
-0.073809 0.148525 -0.022871
-0.073808 0.148528 -0.022371
-0.073928 0.148531 -0.021871
-0.074048 0.148535 -0.021371
-0.074048 0.148538 -0.020871
-0.074167 0.148541 -0.020371
-0.074407 0.148546 -0.019871
-0.074527 0.148550 -0.019371
-0.074646 0.148553 -0.018871
-0.074766 0.148556 -0.018371
-0.074886 0.148561 -0.017871
-0.075005 0.148564 -0.017371
-0.075125 0.148568 -0.016871
-0.075245 0.148571 -0.016371
-0.075245 0.148574 -0.015871
-0.075484 0.148579 -0.015371
-0.075604 0.148582 -0.014871
-0.075604 0.148584 -0.014371
-0.075723 0.148589 -0.013871
-0.075843 0.148592 -0.013371
-0.075963 0.148596 -0.012871
-0.075963 0.148599 -0.012371
-0.076082 0.148602 -0.011871
-0.076202 0.148605 -0.011371
-0.076202 0.148608 -0.010871
-0.076442 0.148612 -0.010371
-0.076441 0.148615 -0.009871
-0.076441 0.148618 -0.009371
-0.076561 0.148622 -0.008871
-0.076561 0.148625 -0.008371
-0.076680 0.148628 -0.007871
-0.076920 0.148633 -0.007371
-0.077040 0.148636 -0.006871
-0.077159 0.148640 -0.006371
-0.077279 0.148643 -0.005871
-0.077399 0.148647 -0.005371
-0.077519 0.148651 -0.004871
-0.077638 0.148654 -0.004371
-0.077758 0.148658 -0.003871
-0.077878 0.148661 -0.003371
-0.078117 0.148666 -0.002871
-0.078476 0.148671 -0.002371
-0.078836 0.148677 -0.001871
-0.079195 0.148683 -0.001370
-0.079674 0.148688 -0.000870
-0.080034 0.148695 -0.000370
-0.080513 0.148700 0.000130
-0.080872 0.148707 0.000630
-0.081231 0.148712 0.001130
-0.081711 0.148719 0.001630
-0.082070 0.148724 0.002130
-0.082549 0.148730 0.002630
-0.083028 0.148736 0.003130
-0.083508 0.148743 0.003630
-0.083987 0.148750 0.004131
-0.084346 0.148755 0.004631
-0.084705 0.148760 0.005131
-0.085065 0.148765 0.005631
-0.085424 0.148772 0.006131
-0.085783 0.148777 0.006631
-0.086263 0.148783 0.007131
-0.086622 0.148789 0.007631
-0.087101 0.148795 0.008131
-0.087580 0.148801 0.008631
-0.088059 0.148808 0.009131
-0.088532 0.148813 0.009631
-0.088871 0.148813 0.010132
-0.089324 0.148814 0.010632
-0.089550 0.148815 0.011132
-0.089889 0.148816 0.011632
-0.090229 0.148816 0.012132
-0.090342 0.148819 0.012632
-0.090568 0.148820 0.013132
-0.090794 0.148822 0.013632
-0.091021 0.148823 0.014132
-0.091134 0.148825 0.014632
-0.091247 0.148827 0.015132
-0.091360 0.148829 0.015632
-0.091360 0.148832 0.016132
-0.091359 0.148835 0.016632
-0.091472 0.148837 0.017132
-0.091472 0.148840 0.017632
-0.091472 0.148842 0.018132
-0.091472 0.148845 0.018632
-0.091472 0.148848 0.019132
-0.091472 0.148851 0.019632
-0.091472 0.148853 0.020132
-0.091358 0.148856 0.020632
-0.091245 0.148859 0.021132
-0.091132 0.148863 0.021632
-0.091018 0.148866 0.022132
-0.090905 0.148869 0.022632
-0.090679 0.148874 0.023132
-0.090565 0.148877 0.023632
-0.090452 0.148880 0.024132
-0.090112 0.148885 0.024632
-0.089886 0.148888 0.025132
-0.089659 0.148892 0.025632
-0.089433 0.148897 0.026131
-0.089206 0.148900 0.026631
-0.088867 0.148904 0.027131
-0.088527 0.148909 0.027631
-0.088294 0.148912 0.028131
-0.087934 0.148911 0.028631
-0.087695 0.148912 0.029131
-0.087335 0.148912 0.029631
-0.087095 0.148913 0.030131
-0.086856 0.148914 0.030631
-0.086496 0.148913 0.031131
-0.086376 0.148916 0.031631
-0.085897 0.148914 0.032131
-0.085537 0.148914 0.032630
-0.085177 0.148915 0.033130
-0.084818 0.148914 0.033630
-0.084338 0.148913 0.034130
-0.083619 0.148910 0.034630
-0.083260 0.148910 0.035130
-0.082780 0.148909 0.035630
-0.082301 0.148908 0.036130
-0.081701 0.148906 0.036630
-0.081222 0.148905 0.037129
-0.080623 0.148903 0.037629
-0.079904 0.148900 0.038129
-0.078945 0.148895 0.038629
-0.078585 0.148895 0.039129
-0.076668 0.148883 0.039628
-0.076548 0.148885 0.040128
-0.074870 0.148875 0.040628
-0.070700 0.149104 -0.040626
-0.071179 0.149110 -0.040125
-0.071658 0.149117 -0.039625
-0.071898 0.149122 -0.039125
-0.072257 0.149127 -0.038625
-0.072377 0.149130 -0.038125
-0.072497 0.149133 -0.037625
-0.072736 0.149138 -0.037125
-0.072856 0.149141 -0.036625
-0.072976 0.149145 -0.036125
-0.073095 0.149149 -0.035625
-0.073335 0.149153 -0.035125
-0.073335 0.149156 -0.034625
-0.073454 0.149159 -0.034125
-0.073574 0.149162 -0.033625
-0.073694 0.149167 -0.033125
-0.073814 0.149170 -0.032625
-0.073933 0.149174 -0.032125
-0.074053 0.149177 -0.031625
-0.074053 0.149180 -0.031125
-0.074172 0.149183 -0.030625
-0.074292 0.149187 -0.030125
-0.074292 0.149190 -0.029625
-0.074412 0.149193 -0.029125
-0.074412 0.149196 -0.028625
-0.074411 0.149198 -0.028125
-0.074531 0.149202 -0.027625
-0.074531 0.149204 -0.027125
-0.074531 0.149207 -0.026625
-0.074531 0.149210 -0.026125
-0.074531 0.149212 -0.025625
-0.074650 0.149217 -0.025125
-0.074650 0.149219 -0.024625
-0.074650 0.149222 -0.024125
-0.074650 0.149225 -0.023625
-0.074650 0.149227 -0.023125
-0.074770 0.149231 -0.022625
-0.074650 0.149233 -0.022125
-0.074769 0.149236 -0.021625
-0.074889 0.149239 -0.021125
-0.075009 0.149243 -0.020625
-0.075128 0.149246 -0.020125
-0.075248 0.149250 -0.019625
-0.075368 0.149254 -0.019125
-0.075487 0.149257 -0.018625
-0.075607 0.149260 -0.018125
-0.075727 0.149264 -0.017625
-0.075727 0.149267 -0.017125
-0.075846 0.149270 -0.016625
-0.075846 0.149273 -0.016125
-0.075966 0.149276 -0.015625
-0.075966 0.149279 -0.015125
-0.075966 0.149282 -0.014625
-0.076085 0.149286 -0.014125
-0.076085 0.149288 -0.013625
-0.076205 0.149292 -0.013125
-0.076205 0.149294 -0.012625
-0.076205 0.149297 -0.012125
-0.076324 0.149301 -0.011625
-0.076324 0.149304 -0.011125
-0.076444 0.149307 -0.010625
-0.076444 0.149310 -0.010125
-0.076444 0.149313 -0.009625
-0.076444 0.149315 -0.009125
-0.076443 0.149318 -0.008625
-0.076443 0.149321 -0.008125
-0.076563 0.149324 -0.007625
-0.076683 0.149328 -0.007125
-0.076922 0.149332 -0.006625
-0.077042 0.149336 -0.006125
-0.077281 0.149340 -0.005625
-0.077521 0.149344 -0.005125
-0.077641 0.149347 -0.004624
-0.077760 0.149352 -0.004124
-0.077880 0.149355 -0.003624
-0.078000 0.149358 -0.003124
-0.078239 0.149363 -0.002624
-0.078479 0.149368 -0.002124
-0.078838 0.149373 -0.001624
-0.079198 0.149378 -0.001124
-0.079557 0.149383 -0.000624
-0.080036 0.149389 -0.000124
-0.080395 0.149394 0.000376
-0.080755 0.149400 0.000876
-0.081234 0.149406 0.001376
-0.081833 0.149413 0.001876
-0.082312 0.149419 0.002376
-0.082791 0.149425 0.002877
-0.083390 0.149432 0.003377
-0.083750 0.149437 0.003877
-0.084229 0.149444 0.004377
-0.084588 0.149449 0.004877
-0.084948 0.149455 0.005377
-0.085187 0.149459 0.005877
-0.085546 0.149464 0.006377
-0.085906 0.149470 0.006877
-0.086265 0.149475 0.007377
-0.086625 0.149480 0.007877
-0.087104 0.149486 0.008377
-0.087463 0.149491 0.008878
-0.088062 0.149498 0.009378
-0.088421 0.149504 0.009878
-0.088761 0.149504 0.010378
-0.089213 0.149504 0.010878
-0.089440 0.149505 0.011378
-0.089666 0.149506 0.011878
-0.090005 0.149508 0.012378
-0.090231 0.149508 0.012878
-0.090458 0.149510 0.013378
-0.090684 0.149511 0.013878
-0.090910 0.149513 0.014378
-0.090910 0.149515 0.014878
-0.091023 0.149518 0.015378
-0.091136 0.149519 0.015878
-0.091249 0.149521 0.016378
-0.091249 0.149524 0.016878
-0.091249 0.149526 0.017378
-0.091249 0.149529 0.017878
-0.091248 0.149532 0.018378
-0.091248 0.149534 0.018878
-0.091135 0.149538 0.019378
-0.091135 0.149540 0.019878
-0.091022 0.149544 0.020378
-0.090908 0.149548 0.020878
-0.090795 0.149551 0.021378
-0.090682 0.149554 0.021878
-0.090568 0.149558 0.022378
-0.090342 0.149562 0.022878
-0.090229 0.149565 0.023378
-0.090002 0.149569 0.023878
-0.089776 0.149573 0.024378
-0.089549 0.149577 0.024878
-0.089210 0.149582 0.025378
-0.088983 0.149586 0.025878
-0.088757 0.149590 0.026378
-0.088417 0.149595 0.026877
-0.088057 0.149595 0.027377
-0.087818 0.149596 0.027877
-0.087578 0.149597 0.028377
-0.087218 0.149596 0.028877
-0.086978 0.149598 0.029377
-0.086619 0.149598 0.029877
-0.086379 0.149599 0.030377
-0.086019 0.149599 0.030877
-0.085660 0.149599 0.031377
-0.085300 0.149599 0.031877
-0.084821 0.149598 0.032377
-0.084461 0.149598 0.032877
-0.084101 0.149598 0.033376
-0.083382 0.149596 0.033876
-0.082783 0.149594 0.034376
-0.082423 0.149594 0.034876
-0.081824 0.149593 0.035376
-0.081465 0.149593 0.035876
-0.080865 0.149591 0.036376
-0.080146 0.149589 0.036875
-0.079187 0.149585 0.037375
-0.078828 0.149585 0.037875
-0.077989 0.149581 0.038375
-0.077030 0.149577 0.038875
-0.075592 0.149569 0.039374
-0.070703 0.149794 -0.042379
-0.071182 0.149800 -0.041879
-0.071541 0.149805 -0.041379
-0.071901 0.149810 -0.040879
-0.072140 0.149814 -0.040379
-0.072260 0.149818 -0.039879
-0.072499 0.149822 -0.039379
-0.072739 0.149827 -0.038879
-0.072859 0.149830 -0.038379
-0.072978 0.149833 -0.037879
-0.073098 0.149837 -0.037379
-0.073218 0.149840 -0.036879
-0.073338 0.149844 -0.036379
-0.073457 0.149847 -0.035879
-0.073577 0.149851 -0.035379
-0.073577 0.149854 -0.034879
-0.073697 0.149857 -0.034379
-0.073816 0.149860 -0.033879
-0.073936 0.149864 -0.033379
-0.074056 0.149867 -0.032879
-0.074175 0.149871 -0.032379
-0.074295 0.149874 -0.031879
-0.074295 0.149876 -0.031379
-0.074415 0.149881 -0.030879
-0.074534 0.149884 -0.030379
-0.074654 0.149887 -0.029879
-0.074654 0.149890 -0.029379
-0.074773 0.149894 -0.028879
-0.074773 0.149897 -0.028379
-0.074893 0.149900 -0.027879
-0.074893 0.149903 -0.027379
-0.075013 0.149906 -0.026878
-0.075013 0.149908 -0.026379
-0.075132 0.149912 -0.025878
-0.075132 0.149914 -0.025378
-0.075132 0.149917 -0.024878
-0.075132 0.149920 -0.024379
-0.075251 0.149924 -0.023878
-0.075251 0.149927 -0.023378
-0.075371 0.149930 -0.022878
-0.075371 0.149932 -0.022378
-0.075491 0.149936 -0.021878
-0.075491 0.149938 -0.021378
-0.075490 0.149941 -0.020878
-0.075610 0.149945 -0.020378
-0.075730 0.149948 -0.019878
-0.075730 0.149951 -0.019378
-0.075849 0.149954 -0.018878
-0.075969 0.149957 -0.018378
-0.075969 0.149960 -0.017878
-0.075969 0.149963 -0.017378
-0.076088 0.149967 -0.016878
-0.076088 0.149970 -0.016378
-0.076088 0.149972 -0.015878
-0.076088 0.149975 -0.015378
-0.076208 0.149978 -0.014878
-0.076088 0.149980 -0.014378
-0.076208 0.149984 -0.013878
-0.076207 0.149986 -0.013378
-0.076207 0.149989 -0.012878
-0.076207 0.149992 -0.012378
-0.076207 0.149994 -0.011878
-0.076207 0.149997 -0.011378
-0.076087 0.149999 -0.010878
-0.076087 0.150002 -0.010378
-0.076087 0.150005 -0.009878
-0.075967 0.150006 -0.009379
-0.075847 0.150008 -0.008879
-0.075966 0.150011 -0.008379
-0.075966 0.150014 -0.007879
-0.076086 0.150018 -0.007379
-0.076326 0.150022 -0.006878
-0.076685 0.150027 -0.006378
-0.077044 0.150032 -0.005878
-0.077284 0.150037 -0.005378
-0.077523 0.150041 -0.004878
-0.077643 0.150044 -0.004378
-0.077763 0.150048 -0.003878
-0.077882 0.150051 -0.003378
-0.078002 0.150054 -0.002878
-0.078242 0.150059 -0.002378
-0.078361 0.150062 -0.001878
-0.078721 0.150068 -0.001378
-0.079200 0.150073 -0.000878
-0.079559 0.150079 -0.000378
-0.080039 0.150084 0.000122
-0.080398 0.150089 0.000622
-0.080877 0.150095 0.001122
-0.081356 0.150101 0.001623
-0.081955 0.150108 0.002123
-0.082435 0.150114 0.002623
-0.082914 0.150120 0.003123
-0.083513 0.150126 0.003623
-0.083992 0.150132 0.004123
-0.084231 0.150136 0.004623
-0.084591 0.150142 0.005123
-0.084950 0.150147 0.005623
-0.085310 0.150152 0.006123
-0.085549 0.150156 0.006623
-0.085908 0.150161 0.007123
-0.086268 0.150166 0.007624
-0.086627 0.150171 0.008124
-0.086987 0.150177 0.008624
-0.087346 0.150181 0.009124
-0.087825 0.150188 0.009624
-0.088185 0.150192 0.010124
-0.088650 0.150195 0.010624
-0.088990 0.150196 0.011124
-0.089216 0.150197 0.011624
-0.089555 0.150197 0.012124
-0.089782 0.150198 0.012624
-0.090121 0.150199 0.013124
-0.090234 0.150200 0.013625
-0.090460 0.150202 0.014125
-0.090573 0.150203 0.014625
-0.090573 0.150206 0.015125
-0.090799 0.150208 0.015625
-0.090912 0.150209 0.016125
-0.090912 0.150212 0.016625
-0.090912 0.150214 0.017125
-0.090912 0.150217 0.017625
-0.090912 0.150220 0.018125
-0.090912 0.150222 0.018625
-0.090798 0.150227 0.019125
-0.090685 0.150230 0.019625
-0.090685 0.150232 0.020125
-0.090572 0.150236 0.020625
-0.090345 0.150240 0.021124
-0.090232 0.150243 0.021624
-0.090119 0.150247 0.022124
-0.089892 0.150251 0.022624
-0.089666 0.150256 0.023124
-0.089552 0.150259 0.023624
-0.089213 0.150264 0.024124
-0.088986 0.150268 0.024624
-0.088647 0.150272 0.025124
-0.088420 0.150277 0.025624
-0.088180 0.150278 0.026124
-0.087821 0.150279 0.026624
-0.087581 0.150280 0.027124
-0.087341 0.150280 0.027624
-0.087101 0.150282 0.028123
-0.086622 0.150281 0.028623
-0.086382 0.150282 0.029123
-0.086142 0.150284 0.029623
-0.085783 0.150284 0.030123
-0.085543 0.150285 0.030623
-0.085063 0.150284 0.031123
-0.084584 0.150284 0.031623
-0.084104 0.150283 0.032123
-0.083625 0.150283 0.032623
-0.083146 0.150282 0.033122
-0.082546 0.150281 0.033622
-0.082067 0.150281 0.034122
-0.081587 0.150280 0.034622
-0.081108 0.150280 0.035122
-0.080868 0.150280 0.035622
-0.079670 0.150275 0.036122
-0.078711 0.150272 0.036621
-0.078351 0.150272 0.037121
-0.077632 0.150269 0.037621
-0.076913 0.150268 0.038121
-0.070586 0.150483 -0.044133
-0.071065 0.150488 -0.043633
-0.071304 0.150493 -0.043133
-0.071544 0.150496 -0.042633
-0.071903 0.150501 -0.042133
-0.072023 0.150505 -0.041633
-0.072143 0.150508 -0.041133
-0.072382 0.150513 -0.040633
-0.072622 0.150516 -0.040133
-0.072741 0.150521 -0.039633
-0.072861 0.150524 -0.039133
-0.072981 0.150527 -0.038633
-0.073101 0.150530 -0.038133
-0.073220 0.150533 -0.037632
-0.073340 0.150537 -0.037132
-0.073340 0.150540 -0.036632
-0.073460 0.150543 -0.036132
-0.073579 0.150547 -0.035632
-0.073699 0.150550 -0.035132
-0.073819 0.150553 -0.034632
-0.073938 0.150557 -0.034132
-0.073938 0.150560 -0.033632
-0.074058 0.150563 -0.033132
-0.074178 0.150566 -0.032632
-0.074297 0.150569 -0.032132
-0.074297 0.150572 -0.031632
-0.074417 0.150576 -0.031132
-0.074537 0.150580 -0.030632
-0.074656 0.150583 -0.030132
-0.074656 0.150585 -0.029632
-0.074776 0.150589 -0.029132
-0.074776 0.150591 -0.028632
-0.074896 0.150594 -0.028132
-0.075015 0.150599 -0.027632
-0.075015 0.150601 -0.027132
-0.075135 0.150605 -0.026632
-0.075255 0.150608 -0.026132
-0.075254 0.150610 -0.025632
-0.075254 0.150613 -0.025132
-0.075374 0.150616 -0.024632
-0.075494 0.150621 -0.024132
-0.075493 0.150623 -0.023632
-0.075493 0.150626 -0.023132
-0.075613 0.150629 -0.022632
-0.075613 0.150632 -0.022132
-0.075733 0.150635 -0.021632
-0.075733 0.150638 -0.021132
-0.075852 0.150641 -0.020632
-0.075852 0.150644 -0.020132
-0.075972 0.150647 -0.019632
-0.075972 0.150649 -0.019132
-0.076091 0.150654 -0.018632
-0.076091 0.150656 -0.018132
-0.076091 0.150659 -0.017632
-0.076091 0.150662 -0.017132
-0.076091 0.150664 -0.016632
-0.076091 0.150667 -0.016132
-0.076091 0.150670 -0.015632
-0.076090 0.150672 -0.015132
-0.076090 0.150675 -0.014632
-0.075970 0.150676 -0.014132
-0.075970 0.150679 -0.013632
-0.075970 0.150682 -0.013132
-0.075850 0.150684 -0.012632
-0.075730 0.150686 -0.012132
-0.075730 0.150689 -0.011632
-0.075610 0.150691 -0.011132
-0.075490 0.150693 -0.010632
-0.075490 0.150696 -0.010132
-0.075490 0.150698 -0.009632
-0.075490 0.150701 -0.009132
-0.075609 0.150704 -0.008632
-0.075729 0.150707 -0.008132
-0.075849 0.150711 -0.007632
-0.076208 0.150716 -0.007132
-0.076448 0.150720 -0.006632
-0.076807 0.150725 -0.006132
-0.077166 0.150730 -0.005632
-0.077406 0.150734 -0.005132
-0.077526 0.150737 -0.004632
-0.077645 0.150740 -0.004132
-0.077765 0.150744 -0.003632
-0.077885 0.150748 -0.003132
-0.077885 0.150750 -0.002632
-0.078124 0.150754 -0.002132
-0.078364 0.150759 -0.001632
-0.078603 0.150762 -0.001132
-0.079083 0.150768 -0.000632
-0.079562 0.150774 -0.000132
-0.079921 0.150779 0.000369
-0.080281 0.150783 0.000869
-0.080880 0.150790 0.001369
-0.081359 0.150795 0.001869
-0.081838 0.150801 0.002369
-0.082557 0.150808 0.002869
-0.082916 0.150813 0.003369
-0.083395 0.150819 0.003869
-0.083875 0.150824 0.004369
-0.084114 0.150828 0.004869
-0.084594 0.150834 0.005370
-0.084833 0.150838 0.005870
-0.085192 0.150843 0.006370
-0.085552 0.150848 0.006870
-0.085791 0.150852 0.007370
-0.086151 0.150857 0.007870
-0.086390 0.150861 0.008370
-0.086869 0.150866 0.008870
-0.087109 0.150871 0.009370
-0.087468 0.150875 0.009870
-0.087948 0.150881 0.010370
-0.088307 0.150886 0.010870
-0.088653 0.150888 0.011370
-0.088879 0.150889 0.011870
-0.089219 0.150889 0.012371
-0.089445 0.150890 0.012871
-0.089671 0.150891 0.013371
-0.089897 0.150892 0.013871
-0.090010 0.150894 0.014371
-0.090123 0.150896 0.014871
-0.090236 0.150898 0.015371
-0.090349 0.150900 0.015871
-0.090462 0.150901 0.016371
-0.090462 0.150904 0.016871
-0.090462 0.150907 0.017371
-0.090349 0.150911 0.017871
-0.090349 0.150913 0.018371
-0.090348 0.150916 0.018871
-0.090235 0.150919 0.019371
-0.090122 0.150923 0.019871
-0.090009 0.150926 0.020371
-0.089895 0.150930 0.020871
-0.089782 0.150934 0.021371
-0.089556 0.150937 0.021870
-0.089329 0.150942 0.022370
-0.089103 0.150947 0.022870
-0.088876 0.150951 0.023370
-0.088650 0.150955 0.023870
-0.088423 0.150959 0.024370
-0.088183 0.150961 0.024870
-0.087824 0.150961 0.025370
-0.087584 0.150962 0.025870
-0.087224 0.150963 0.026370
-0.086985 0.150964 0.026870
-0.086745 0.150965 0.027370
-0.086385 0.150965 0.027870
-0.086145 0.150967 0.028370
-0.085786 0.150967 0.028869
-0.085426 0.150968 0.029369
-0.085186 0.150969 0.029869
-0.084467 0.150968 0.030369
-0.084107 0.150968 0.030869
-0.083748 0.150969 0.031369
-0.083148 0.150967 0.031869
-0.082669 0.150968 0.032369
-0.082070 0.150966 0.032869
-0.081710 0.150967 0.033368
-0.081230 0.150967 0.033868
-0.080751 0.150966 0.034368
-0.080272 0.150966 0.034868
-0.078953 0.150961 0.035368
-0.078234 0.150959 0.035868
-0.077994 0.150960 0.036368
-0.077155 0.150958 0.036867
-0.076316 0.150955 0.037367
-0.070468 0.151174 -0.045387
-0.070948 0.151180 -0.044887
-0.071187 0.151183 -0.044387
-0.071427 0.151188 -0.043887
-0.071666 0.151192 -0.043387
-0.071906 0.151195 -0.042886
-0.072145 0.151200 -0.042386
-0.072145 0.151203 -0.041886
-0.072385 0.151207 -0.041386
-0.072504 0.151210 -0.040886
-0.072624 0.151213 -0.040386
-0.072744 0.151216 -0.039886
-0.072864 0.151219 -0.039386
-0.072863 0.151222 -0.038886
-0.072983 0.151226 -0.038386
-0.073103 0.151229 -0.037886
-0.073223 0.151233 -0.037386
-0.073342 0.151236 -0.036886
-0.073342 0.151239 -0.036386
-0.073462 0.151242 -0.035886
-0.073582 0.151245 -0.035386
-0.073581 0.151248 -0.034886
-0.073701 0.151251 -0.034386
-0.073821 0.151255 -0.033886
-0.073941 0.151258 -0.033386
-0.074060 0.151261 -0.032886
-0.074060 0.151264 -0.032386
-0.074180 0.151267 -0.031886
-0.074299 0.151270 -0.031386
-0.074299 0.151273 -0.030886
-0.074419 0.151276 -0.030386
-0.074539 0.151281 -0.029886
-0.074539 0.151283 -0.029386
-0.074658 0.151286 -0.028886
-0.074778 0.151290 -0.028386
-0.074898 0.151293 -0.027886
-0.074898 0.151296 -0.027386
-0.075017 0.151299 -0.026886
-0.075017 0.151301 -0.026386
-0.075137 0.151305 -0.025886
-0.075257 0.151308 -0.025386
-0.075257 0.151310 -0.024886
-0.075256 0.151313 -0.024386
-0.075376 0.151317 -0.023886
-0.075496 0.151321 -0.023386
-0.075496 0.151323 -0.022886
-0.075496 0.151326 -0.022386
-0.075615 0.151329 -0.021886
-0.075735 0.151332 -0.021386
-0.075735 0.151335 -0.020886
-0.075855 0.151338 -0.020386
-0.075854 0.151341 -0.019886
-0.075854 0.151344 -0.019386
-0.075974 0.151347 -0.018886
-0.075974 0.151349 -0.018386
-0.075974 0.151352 -0.017886
-0.075974 0.151355 -0.017386
-0.075973 0.151357 -0.016886
-0.075853 0.151360 -0.016386
-0.075853 0.151362 -0.015886
-0.075733 0.151365 -0.015386
-0.075613 0.151367 -0.014886
-0.075493 0.151369 -0.014386
-0.075373 0.151371 -0.013886
-0.075373 0.151374 -0.013386
-0.075253 0.151375 -0.012886
-0.075253 0.151378 -0.012386
-0.075253 0.151380 -0.011886
-0.075253 0.151383 -0.011386
-0.075253 0.151386 -0.010886
-0.075372 0.151390 -0.010386
-0.075492 0.151393 -0.009886
-0.075732 0.151397 -0.009386
-0.075732 0.151399 -0.008886
-0.076091 0.151404 -0.008386
-0.076331 0.151408 -0.007886
-0.076570 0.151412 -0.007386
-0.076690 0.151415 -0.006886
-0.076929 0.151420 -0.006386
-0.077169 0.151424 -0.005886
-0.077289 0.151427 -0.005386
-0.077408 0.151430 -0.004886
-0.077528 0.151433 -0.004386
-0.077648 0.151436 -0.003886
-0.077648 0.151439 -0.003386
-0.077647 0.151442 -0.002886
-0.077767 0.151446 -0.002386
-0.078007 0.151450 -0.001886
-0.078127 0.151453 -0.001386
-0.078366 0.151457 -0.000886
-0.078845 0.151462 -0.000385
-0.079325 0.151468 0.000115
-0.079684 0.151472 0.000615
-0.080043 0.151477 0.001115
-0.080642 0.151483 0.001615
-0.081122 0.151489 0.002115
-0.081721 0.151495 0.002615
-0.082200 0.151500 0.003115
-0.082559 0.151505 0.003615
-0.083039 0.151510 0.004115
-0.083518 0.151515 0.004616
-0.083877 0.151519 0.005116
-0.084237 0.151525 0.005616
-0.084596 0.151529 0.006116
-0.084955 0.151534 0.006616
-0.085195 0.151538 0.007116
-0.085554 0.151542 0.007616
-0.085794 0.151547 0.008116
-0.086153 0.151551 0.008616
-0.086513 0.151556 0.009116
-0.086872 0.151560 0.009616
-0.087112 0.151564 0.010116
-0.087591 0.151570 0.010616
-0.087830 0.151574 0.011116
-0.088190 0.151579 0.011617
-0.088429 0.151583 0.012117
-0.088655 0.151583 0.012617
-0.088882 0.151584 0.013117
-0.089108 0.151585 0.013617
-0.089334 0.151587 0.014117
-0.089447 0.151588 0.014617
-0.089560 0.151590 0.015117
-0.089560 0.151593 0.015617
-0.089673 0.151594 0.016117
-0.089786 0.151596 0.016617
-0.089786 0.151599 0.017117
-0.089673 0.151602 0.017617
-0.089559 0.151606 0.018117
-0.089672 0.151607 0.018617
-0.089672 0.151610 0.019117
-0.089559 0.151614 0.019617
-0.089332 0.151619 0.020117
-0.089106 0.151622 0.020617
-0.088993 0.151627 0.021117
-0.088993 0.151629 0.021617
-0.088653 0.151634 0.022117
-0.088426 0.151639 0.022616
-0.088187 0.151641 0.023116
-0.087947 0.151641 0.023616
-0.087827 0.151643 0.024116
-0.087467 0.151645 0.024616
-0.087227 0.151645 0.025116
-0.086868 0.151646 0.025616
-0.086628 0.151648 0.026116
-0.086268 0.151648 0.026616
-0.086029 0.151650 0.027116
-0.085669 0.151651 0.027616
-0.085429 0.151652 0.028116
-0.084950 0.151652 0.028616
-0.084590 0.151652 0.029115
-0.083991 0.151652 0.029615
-0.083631 0.151653 0.030115
-0.083151 0.151652 0.030615
-0.082792 0.151653 0.031115
-0.082192 0.151653 0.031615
-0.081833 0.151654 0.032115
-0.081114 0.151652 0.032615
-0.080754 0.151652 0.033115
-0.080274 0.151653 0.033614
-0.079316 0.151651 0.034114
-0.078357 0.151647 0.034614
-0.077757 0.151647 0.035114
-0.077518 0.151648 0.035614
-0.075360 0.151639 0.036113
-0.069273 0.151858 -0.047141
-0.069991 0.151864 -0.046641
-0.070591 0.151870 -0.046140
-0.070950 0.151875 -0.045640
-0.071189 0.151878 -0.045140
-0.071429 0.151882 -0.044640
-0.071669 0.151886 -0.044140
-0.071788 0.151889 -0.043640
-0.071908 0.151892 -0.043140
-0.072148 0.151897 -0.042640
-0.072267 0.151900 -0.042140
-0.072267 0.151903 -0.041640
-0.072387 0.151906 -0.041140
-0.072507 0.151909 -0.040640
-0.072626 0.151912 -0.040140
-0.072746 0.151915 -0.039640
-0.072746 0.151918 -0.039140
-0.072866 0.151921 -0.038640
-0.072985 0.151925 -0.038140
-0.072985 0.151927 -0.037640
-0.073105 0.151930 -0.037140
-0.073225 0.151934 -0.036640
-0.073344 0.151937 -0.036140
-0.073344 0.151940 -0.035640
-0.073464 0.151944 -0.035140
-0.073464 0.151946 -0.034640
-0.073584 0.151950 -0.034140
-0.073703 0.151953 -0.033640
-0.073823 0.151956 -0.033140
-0.073823 0.151959 -0.032640
-0.073943 0.151962 -0.032140
-0.074062 0.151965 -0.031640
-0.074062 0.151968 -0.031140
-0.074182 0.151971 -0.030640
-0.074301 0.151974 -0.030140
-0.074301 0.151977 -0.029640
-0.074421 0.151980 -0.029140
-0.074541 0.151983 -0.028640
-0.074541 0.151986 -0.028140
-0.074660 0.151989 -0.027640
-0.074660 0.151992 -0.027140
-0.074780 0.151995 -0.026640
-0.074900 0.151999 -0.026140
-0.074900 0.152002 -0.025640
-0.075019 0.152005 -0.025140
-0.075019 0.152008 -0.024640
-0.075019 0.152010 -0.024140
-0.075139 0.152014 -0.023640
-0.075258 0.152017 -0.023140
-0.075258 0.152020 -0.022640
-0.075378 0.152023 -0.022140
-0.075378 0.152025 -0.021640
-0.075378 0.152028 -0.021140
-0.075497 0.152031 -0.020640
-0.075497 0.152034 -0.020140
-0.075497 0.152037 -0.019640
-0.075497 0.152039 -0.019140
-0.075497 0.152042 -0.018640
-0.075377 0.152044 -0.018140
-0.075377 0.152047 -0.017640
-0.075377 0.152050 -0.017140
-0.075257 0.152052 -0.016640
-0.075137 0.152054 -0.016140
-0.075017 0.152056 -0.015640
-0.075136 0.152059 -0.015140
-0.075016 0.152061 -0.014640
-0.075016 0.152064 -0.014140
-0.075136 0.152067 -0.013640
-0.075256 0.152071 -0.013140
-0.075256 0.152073 -0.012640
-0.075375 0.152076 -0.012140
-0.075615 0.152080 -0.011640
-0.075735 0.152083 -0.011140
-0.075854 0.152087 -0.010640
-0.076094 0.152090 -0.010140
-0.076333 0.152095 -0.009640
-0.076453 0.152098 -0.009140
-0.076573 0.152101 -0.008640
-0.076812 0.152105 -0.008140
-0.076812 0.152108 -0.007640
-0.076932 0.152111 -0.007140
-0.077052 0.152114 -0.006640
-0.077052 0.152117 -0.006140
-0.077291 0.152121 -0.005639
-0.077291 0.152123 -0.005139
-0.077411 0.152126 -0.004639
-0.077411 0.152129 -0.004139
-0.077530 0.152132 -0.003639
-0.077410 0.152134 -0.003139
-0.077410 0.152137 -0.002639
-0.077530 0.152140 -0.002139
-0.077769 0.152145 -0.001639
-0.077889 0.152148 -0.001139
-0.078249 0.152152 -0.000639
-0.078488 0.152156 -0.000139
-0.078848 0.152160 0.000361
-0.079327 0.152166 0.000861
-0.079566 0.152170 0.001361
-0.080165 0.152175 0.001861
-0.080645 0.152181 0.002361
-0.081244 0.152186 0.002861
-0.081603 0.152190 0.003361
-0.082082 0.152196 0.003862
-0.082562 0.152201 0.004362
-0.083041 0.152206 0.004862
-0.083400 0.152210 0.005362
-0.083760 0.152215 0.005862
-0.084119 0.152219 0.006362
-0.084359 0.152223 0.006862
-0.084838 0.152228 0.007362
-0.084958 0.152232 0.007862
-0.085317 0.152236 0.008362
-0.085557 0.152240 0.008862
-0.086036 0.152245 0.009362
-0.086275 0.152248 0.009862
-0.086635 0.152253 0.010362
-0.086874 0.152257 0.010863
-0.087114 0.152261 0.011363
-0.087473 0.152265 0.011863
-0.087593 0.152268 0.012363
-0.088072 0.152274 0.012863
-0.088192 0.152277 0.013363
-0.088545 0.152280 0.013863
-0.088545 0.152282 0.014363
-0.088658 0.152284 0.014863
-0.088771 0.152286 0.015363
-0.088884 0.152288 0.015863
-0.088884 0.152291 0.016363
-0.088883 0.152293 0.016863
-0.088883 0.152296 0.017363
-0.088770 0.152299 0.017863
-0.088770 0.152302 0.018363
-0.088770 0.152304 0.018863
-0.088656 0.152309 0.019363
-0.088543 0.152312 0.019863
-0.088430 0.152316 0.020363
-0.088310 0.152318 0.020863
-0.088070 0.152320 0.021363
-0.087830 0.152321 0.021863
-0.087710 0.152324 0.022363
-0.087470 0.152324 0.022863
-0.087111 0.152325 0.023362
-0.086991 0.152327 0.023862
-0.086631 0.152329 0.024362
-0.086391 0.152330 0.024862
-0.086152 0.152331 0.025362
-0.085792 0.152332 0.025862
-0.085432 0.152333 0.026362
-0.085192 0.152335 0.026862
-0.084833 0.152335 0.027362
-0.084353 0.152336 0.027862
-0.083754 0.152336 0.028362
-0.083514 0.152337 0.028861
-0.083274 0.152338 0.029361
-0.082555 0.152338 0.029861
-0.082075 0.152338 0.030361
-0.081836 0.152339 0.030861
-0.080997 0.152338 0.031361
-0.080637 0.152339 0.031861
-0.080277 0.152339 0.032361
-0.079918 0.152341 0.032861
-0.078719 0.152337 0.033360
-0.077880 0.152336 0.033860
-0.077640 0.152337 0.034360
-0.075603 0.152330 0.034860
-0.075003 0.152330 0.035359
-0.069275 0.152551 -0.048395
-0.069874 0.152556 -0.047894
-0.070233 0.152560 -0.047394
-0.070593 0.152564 -0.046894
-0.070833 0.152569 -0.046394
-0.071072 0.152573 -0.045894
-0.071312 0.152576 -0.045394
-0.071431 0.152580 -0.044894
-0.071671 0.152583 -0.044394
-0.071791 0.152587 -0.043894
-0.071790 0.152589 -0.043394
-0.072030 0.152593 -0.042894
-0.072150 0.152596 -0.042394
-0.072150 0.152599 -0.041894
-0.072269 0.152602 -0.041394
-0.072389 0.152605 -0.040894
-0.072509 0.152608 -0.040394
-0.072509 0.152611 -0.039894
-0.072509 0.152614 -0.039394
-0.072628 0.152617 -0.038894
-0.072748 0.152620 -0.038394
-0.072868 0.152623 -0.037894
-0.072867 0.152626 -0.037394
-0.072867 0.152629 -0.036894
-0.072987 0.152632 -0.036394
-0.073107 0.152635 -0.035894
-0.073227 0.152638 -0.035394
-0.073226 0.152641 -0.034894
-0.073346 0.152644 -0.034394
-0.073346 0.152647 -0.033894
-0.073466 0.152650 -0.033394
-0.073585 0.152653 -0.032894
-0.073705 0.152656 -0.032394
-0.073705 0.152659 -0.031894
-0.073825 0.152662 -0.031394
-0.073945 0.152666 -0.030894
-0.073944 0.152668 -0.030394
-0.074064 0.152671 -0.029894
-0.074064 0.152674 -0.029394
-0.074184 0.152677 -0.028894
-0.074184 0.152680 -0.028394
-0.074303 0.152683 -0.027894
-0.074423 0.152686 -0.027394
-0.074423 0.152689 -0.026894
-0.074543 0.152692 -0.026394
-0.074542 0.152695 -0.025894
-0.074542 0.152698 -0.025394
-0.074542 0.152700 -0.024894
-0.074662 0.152704 -0.024394
-0.074662 0.152706 -0.023894
-0.074662 0.152709 -0.023394
-0.074781 0.152712 -0.022894
-0.074781 0.152715 -0.022394
-0.074901 0.152718 -0.021894
-0.074781 0.152720 -0.021394
-0.074781 0.152723 -0.020894
-0.074900 0.152726 -0.020394
-0.074900 0.152729 -0.019894
-0.074900 0.152731 -0.019394
-0.074900 0.152734 -0.018894
-0.074900 0.152737 -0.018394
-0.074900 0.152739 -0.017894
-0.074900 0.152742 -0.017394
-0.074900 0.152745 -0.016894
-0.074899 0.152748 -0.016394
-0.074899 0.152750 -0.015894
-0.074899 0.152753 -0.015394
-0.075019 0.152756 -0.014894
-0.075139 0.152759 -0.014394
-0.075258 0.152762 -0.013894
-0.075738 0.152767 -0.013393
-0.075857 0.152770 -0.012893
-0.076217 0.152775 -0.012393
-0.076336 0.152778 -0.011893
-0.076456 0.152781 -0.011393
-0.076456 0.152784 -0.010893
-0.076576 0.152787 -0.010393
-0.076695 0.152790 -0.009893
-0.076695 0.152793 -0.009393
-0.076815 0.152796 -0.008893
-0.076935 0.152799 -0.008393
-0.076935 0.152802 -0.007893
-0.077054 0.152805 -0.007393
-0.077054 0.152808 -0.006893
-0.077054 0.152810 -0.006393
-0.077174 0.152814 -0.005893
-0.077174 0.152816 -0.005393
-0.077174 0.152819 -0.004893
-0.077173 0.152822 -0.004393
-0.077173 0.152824 -0.003893
-0.077293 0.152828 -0.003393
-0.077173 0.152830 -0.002893
-0.077293 0.152833 -0.002393
-0.077412 0.152836 -0.001893
-0.077532 0.152839 -0.001393
-0.077652 0.152843 -0.000893
-0.077891 0.152847 -0.000393
-0.078131 0.152851 0.000107
-0.078371 0.152855 0.000607
-0.078730 0.152859 0.001107
-0.078970 0.152863 0.001607
-0.079449 0.152867 0.002107
-0.079808 0.152872 0.002607
-0.080288 0.152876 0.003107
-0.080767 0.152881 0.003607
-0.081246 0.152886 0.004108
-0.081725 0.152891 0.004608
-0.082085 0.152895 0.005108
-0.082444 0.152899 0.005608
-0.082803 0.152903 0.006108
-0.083283 0.152908 0.006608
-0.083642 0.152912 0.007108
-0.084122 0.152917 0.007608
-0.084361 0.152921 0.008108
-0.084601 0.152924 0.008608
-0.084840 0.152928 0.009108
-0.085200 0.152933 0.009608
-0.085439 0.152937 0.010109
-0.085799 0.152941 0.010609
-0.086038 0.152945 0.011109
-0.086278 0.152949 0.011609
-0.086517 0.152952 0.012109
-0.086757 0.152956 0.012609
-0.086996 0.152960 0.013109
-0.087116 0.152963 0.013609
-0.087236 0.152966 0.014109
-0.087356 0.152969 0.014609
-0.087595 0.152973 0.015109
-0.087595 0.152976 0.015609
-0.087715 0.152979 0.016109
-0.087595 0.152981 0.016609
-0.087714 0.152984 0.017109
-0.087834 0.152988 0.017609
-0.087714 0.152990 0.018109
-0.087594 0.152992 0.018609
-0.087594 0.152995 0.019109
-0.087354 0.152996 0.019609
-0.087354 0.152999 0.020109
-0.086994 0.153000 0.020609
-0.086994 0.153003 0.021109
-0.086755 0.153004 0.021609
-0.086634 0.153007 0.022109
-0.086395 0.153008 0.022609
-0.086035 0.153009 0.023108
-0.085795 0.153011 0.023608
-0.085675 0.153013 0.024108
-0.085315 0.153014 0.024608
-0.084836 0.153014 0.025108
-0.084596 0.153016 0.025608
-0.084236 0.153017 0.026108
-0.083877 0.153018 0.026608
-0.083158 0.153017 0.027108
-0.083038 0.153020 0.027608
-0.082798 0.153021 0.028108
-0.082079 0.153021 0.028607
-0.081839 0.153023 0.029107
-0.081239 0.153023 0.029607
-0.081000 0.153024 0.030107
-0.080640 0.153025 0.030607
-0.079801 0.153025 0.031107
-0.079561 0.153026 0.031607
-0.078962 0.153026 0.032107
-0.077763 0.153024 0.032606
-0.077283 0.153024 0.033106
-0.075366 0.153018 0.033606
-0.073807 0.153014 0.034105
-0.069038 0.153243 -0.049648
-0.069397 0.153247 -0.049148
-0.069876 0.153252 -0.048648
-0.070116 0.153256 -0.048148
-0.070475 0.153259 -0.047648
-0.070715 0.153262 -0.047148
-0.070955 0.153266 -0.046648
-0.071074 0.153269 -0.046148
-0.071314 0.153273 -0.045648
-0.071434 0.153276 -0.045148
-0.071553 0.153279 -0.044648
-0.071673 0.153283 -0.044148
-0.071673 0.153285 -0.043648
-0.071793 0.153289 -0.043148
-0.071912 0.153292 -0.042648
-0.072032 0.153295 -0.042148
-0.072032 0.153298 -0.041648
-0.072152 0.153301 -0.041148
-0.072271 0.153304 -0.040648
-0.072391 0.153307 -0.040148
-0.072391 0.153310 -0.039648
-0.072511 0.153313 -0.039148
-0.072511 0.153316 -0.038648
-0.072630 0.153319 -0.038148
-0.072630 0.153322 -0.037648
-0.072750 0.153325 -0.037148
-0.072750 0.153328 -0.036648
-0.072869 0.153330 -0.036148
-0.072869 0.153332 -0.035648
-0.072989 0.153336 -0.035148
-0.072989 0.153338 -0.034648
-0.073109 0.153342 -0.034148
-0.073228 0.153345 -0.033648
-0.073228 0.153347 -0.033148
-0.073348 0.153351 -0.032648
-0.073468 0.153354 -0.032147
-0.073468 0.153356 -0.031647
-0.073587 0.153360 -0.031147
-0.073587 0.153362 -0.030647
-0.073707 0.153366 -0.030147
-0.073707 0.153368 -0.029647
-0.073826 0.153371 -0.029147
-0.073826 0.153374 -0.028647
-0.073946 0.153377 -0.028147
-0.073946 0.153380 -0.027647
-0.073946 0.153383 -0.027147
-0.074066 0.153386 -0.026647
-0.074185 0.153389 -0.026147
-0.074185 0.153392 -0.025647
-0.074065 0.153394 -0.025147
-0.074185 0.153397 -0.024647
-0.074185 0.153400 -0.024147
-0.074304 0.153403 -0.023647
-0.074304 0.153406 -0.023147
-0.074304 0.153408 -0.022647
-0.074424 0.153412 -0.022147
-0.074424 0.153414 -0.021647
-0.074424 0.153417 -0.021147
-0.074543 0.153420 -0.020647
-0.074543 0.153423 -0.020147
-0.074543 0.153426 -0.019647
-0.074543 0.153428 -0.019147
-0.074663 0.153431 -0.018647
-0.074782 0.153435 -0.018147
-0.074782 0.153437 -0.017647
-0.074902 0.153440 -0.017147
-0.074902 0.153443 -0.016647
-0.075141 0.153447 -0.016147
-0.075261 0.153449 -0.015647
-0.075621 0.153453 -0.015147
-0.076100 0.153458 -0.014647
-0.076339 0.153462 -0.014147
-0.076579 0.153465 -0.013647
-0.076579 0.153468 -0.013147
-0.076699 0.153471 -0.012647
-0.076698 0.153474 -0.012147
-0.076818 0.153477 -0.011647
-0.076938 0.153480 -0.011147
-0.076818 0.153483 -0.010647
-0.076938 0.153486 -0.010147
-0.076938 0.153488 -0.009647
-0.076937 0.153491 -0.009147
-0.076937 0.153494 -0.008647
-0.076937 0.153497 -0.008147
-0.076937 0.153499 -0.007647
-0.076937 0.153502 -0.007147
-0.076937 0.153505 -0.006647
-0.077056 0.153508 -0.006147
-0.077056 0.153510 -0.005647
-0.077056 0.153513 -0.005147
-0.076936 0.153515 -0.004647
-0.076936 0.153518 -0.004147
-0.077056 0.153521 -0.003647
-0.076936 0.153523 -0.003147
-0.076936 0.153526 -0.002647
-0.077055 0.153529 -0.002147
-0.077055 0.153532 -0.001647
-0.077055 0.153535 -0.001147
-0.077175 0.153538 -0.000647
-0.077295 0.153541 -0.000147
-0.077534 0.153545 0.000353
-0.077654 0.153547 0.000853
-0.078013 0.153551 0.001353
-0.078253 0.153555 0.001853
-0.078612 0.153559 0.002353
-0.078852 0.153563 0.002853
-0.079211 0.153567 0.003353
-0.079571 0.153571 0.003853
-0.079930 0.153575 0.004354
-0.080409 0.153579 0.004854
-0.080649 0.153583 0.005354
-0.081248 0.153588 0.005854
-0.081847 0.153593 0.006354
-0.082087 0.153597 0.006854
-0.082566 0.153601 0.007354
-0.082926 0.153605 0.007854
-0.083285 0.153609 0.008354
-0.083644 0.153614 0.008854
-0.084004 0.153618 0.009354
-0.084243 0.153621 0.009855
-0.084483 0.153625 0.010355
-0.084723 0.153629 0.010855
-0.085082 0.153632 0.011355
-0.085322 0.153636 0.011855
-0.085561 0.153640 0.012355
-0.085681 0.153643 0.012855
-0.085681 0.153645 0.013355
-0.086040 0.153650 0.013855
-0.086280 0.153653 0.014355
-0.086040 0.153655 0.014855
-0.086279 0.153659 0.015355
-0.086279 0.153661 0.015855
-0.086279 0.153664 0.016355
-0.086399 0.153667 0.016855
-0.086519 0.153671 0.017355
-0.086399 0.153673 0.017855
-0.086279 0.153675 0.018355
-0.086279 0.153678 0.018855
-0.086039 0.153679 0.019355
-0.085919 0.153681 0.019855
-0.085919 0.153684 0.020355
-0.085679 0.153686 0.020855
-0.085559 0.153688 0.021355
-0.085319 0.153690 0.021855
-0.085199 0.153692 0.022355
-0.084959 0.153693 0.022855
-0.084719 0.153696 0.023354
-0.084360 0.153697 0.023854
-0.083640 0.153697 0.024354
-0.083640 0.153699 0.024854
-0.083161 0.153700 0.025354
-0.082921 0.153702 0.025854
-0.082202 0.153702 0.026354
-0.082082 0.153705 0.026854
-0.081842 0.153706 0.027354
-0.081362 0.153707 0.027854
-0.080643 0.153706 0.028353
-0.080283 0.153708 0.028853
-0.079924 0.153710 0.029353
-0.079684 0.153711 0.029853
-0.079444 0.153713 0.030353
-0.077526 0.153708 0.030853
-0.077286 0.153710 0.031353
-0.076807 0.153711 0.031852
-0.074290 0.153704 0.032352
-0.074529 0.153707 0.032852
-0.074050 0.153708 0.033352
-0.068321 0.153934 -0.050902
-0.068920 0.153938 -0.050402
-0.069400 0.153943 -0.049902
-0.069759 0.153946 -0.049402
-0.070118 0.153950 -0.048902
-0.070358 0.153954 -0.048402
-0.070478 0.153957 -0.047902
-0.070717 0.153960 -0.047402
-0.070957 0.153964 -0.046902
-0.071077 0.153967 -0.046402
-0.071077 0.153970 -0.045902
-0.071316 0.153973 -0.045402
-0.071436 0.153977 -0.044902
-0.071436 0.153979 -0.044402
-0.071555 0.153981 -0.043902
-0.071675 0.153985 -0.043402
-0.071795 0.153988 -0.042901
-0.071795 0.153991 -0.042401
-0.071914 0.153994 -0.041901
-0.072034 0.153997 -0.041401
-0.072034 0.154000 -0.040901
-0.072154 0.154003 -0.040401
-0.072154 0.154006 -0.039901
-0.072273 0.154009 -0.039401
-0.072273 0.154011 -0.038901
-0.072393 0.154015 -0.038401
-0.072513 0.154018 -0.037901
-0.072513 0.154020 -0.037401
-0.072512 0.154023 -0.036901
-0.072632 0.154025 -0.036401
-0.072752 0.154029 -0.035901
-0.072752 0.154031 -0.035401
-0.072752 0.154034 -0.034901
-0.072871 0.154037 -0.034401
-0.072991 0.154040 -0.033901
-0.072991 0.154043 -0.033401
-0.073111 0.154046 -0.032901
-0.073111 0.154049 -0.032401
-0.073110 0.154052 -0.031901
-0.073350 0.154055 -0.031401
-0.073350 0.154058 -0.030901
