# .PCD v.7 - Point Cloud Data file format
VERSION .7
FIELDS x y z
SIZE 4 4 4
TYPE F F F
COUNT 1 1 1
WIDTH 1658
HEIGHT 1
POINTS 1658
DATA ascii
-0.074851 0.161949 -0.012616
-0.074499 0.161960 -0.012261
-0.074231 0.161971 -0.011822
-0.073794 0.161982 -0.011552
-0.073442 0.161992 -0.011197
-0.073175 0.162003 -0.010758
-0.072822 0.162014 -0.010403
-0.072470 0.162025 -0.010049
-0.071863 0.162035 -0.009948
-0.071595 0.162046 -0.009508
-0.071073 0.162057 -0.009323
-0.070465 0.162067 -0.009222
-0.053370 0.162355 -0.000835
-0.053738 0.162382 0.000235
-0.053746 0.162400 0.000947
-0.053844 0.162422 0.001749
-0.053762 0.162439 0.002372
-0.053680 0.162455 0.002995
-0.053418 0.162468 0.003439
-0.053066 0.162478 0.003794
-0.052803 0.162491 0.004238
-0.052451 0.162502 0.004592
-0.052009 0.162511 0.004858
-0.051566 0.162519 0.005123
-0.051124 0.162529 0.005388
-0.050682 0.162537 0.005653
-0.050149 0.162544 0.005829
-0.049617 0.162551 0.006005
-0.048994 0.162555 0.006091
-0.048372 0.162559 0.006178
-0.047749 0.162565 0.006264
-0.046947 0.162565 0.006172
-0.046234 0.162567 0.006169
-0.045251 0.162565 0.005898
-0.044268 0.162561 0.005626
-0.043646 0.162566 0.005713
-0.043023 0.162570 0.005799
-0.034384 0.162395 -0.002072
-0.032771 0.162377 -0.002969
-0.031878 0.162376 -0.003151
-0.031166 0.162379 -0.003153
-0.030003 0.162372 -0.003604
-0.028930 0.162367 -0.003964
-0.028037 0.162365 -0.004146
-0.026874 0.162358 -0.004596
-0.025441 0.162344 -0.005314
-0.024728 0.162346 -0.005317
-0.024106 0.162351 -0.005231
-0.021592 0.162313 -0.007022
-0.021239 0.162324 -0.006667
-0.019806 0.162311 -0.007385
-0.019634 0.162325 -0.006852
-0.017570 0.162297 -0.008196
-0.016678 0.162296 -0.008378
-0.067534 0.161561 -0.056879
-0.067632 0.161581 -0.056077
-0.068090 0.161609 -0.054918
-0.068459 0.161635 -0.053848
-0.068557 0.161655 -0.053046
-0.069195 0.161688 -0.051708
-0.069384 0.161711 -0.050817
-0.069662 0.161735 -0.049837
-0.069760 0.161755 -0.049035
-0.070128 0.161782 -0.047965
-0.070496 0.161807 -0.046895
-0.070595 0.161829 -0.046093
-0.070963 0.161854 -0.045023
-0.071241 0.161879 -0.044043
-0.071519 0.161903 -0.043062
-0.071798 0.161927 -0.042082
-0.072076 0.161952 -0.041101
-0.072354 0.161976 -0.040121
-0.072542 0.161999 -0.039230
-0.072910 0.162025 -0.038160
-0.073099 0.162048 -0.037269
-0.073467 0.162074 -0.036199
-0.073655 0.162096 -0.035308
-0.074023 0.162122 -0.034238
-0.078355 0.162234 -0.029234
-0.078543 0.162256 -0.028343
-0.078641 0.162277 -0.027541
-0.078649 0.162296 -0.026829
-0.078657 0.162314 -0.026116
-0.078575 0.162331 -0.025493
-0.078493 0.162347 -0.024871
-0.078411 0.162364 -0.024248
-0.078239 0.162379 -0.023714
-0.078157 0.162395 -0.023091
-0.077985 0.162410 -0.022558
-0.077903 0.162426 -0.021935
-0.077730 0.162441 -0.021401
-0.077648 0.162458 -0.020779
-0.077476 0.162472 -0.020245
-0.077304 0.162487 -0.019712
-0.077312 0.162505 -0.018999
-0.077140 0.162520 -0.018466
-0.076968 0.162535 -0.017932
-0.076796 0.162549 -0.017399
-0.076533 0.162561 -0.016955
-0.076451 0.162579 -0.016332
-0.076189 0.162591 -0.015888
-0.075927 0.162603 -0.015444
-0.075755 0.162618 -0.014910
-0.075403 0.162629 -0.014556
-0.075140 0.162642 -0.014112
-0.074788 0.162652 -0.013757
-0.074436 0.162663 -0.013402
-0.074084 0.162674 -0.013048
-0.073821 0.162687 -0.012604
-0.073379 0.162695 -0.012338
-0.073027 0.162706 -0.011984
-0.072764 0.162719 -0.011540
-0.072322 0.162728 -0.011274
-0.071790 0.162734 -0.011098
-0.071347 0.162743 -0.010833
-0.070725 0.162748 -0.010747
-0.069292 0.162736 -0.011465
-0.050853 0.163016 -0.003707
-0.052572 0.163072 -0.001296
-0.052941 0.163098 -0.000226
-0.053039 0.163119 0.000576
-0.053047 0.163137 0.001288
-0.052875 0.163152 0.001821
-0.052793 0.163168 0.002444
-0.052620 0.163183 0.002978
-0.052268 0.163194 0.003332
-0.052006 0.163207 0.003776
-0.051564 0.163215 0.004042
-0.051211 0.163226 0.004396
-0.050859 0.163237 0.004751
-0.050327 0.163243 0.004927
-0.049884 0.163252 0.005192
-0.049352 0.163260 0.005368
-0.048729 0.163264 0.005454
-0.048197 0.163271 0.005630
-0.047574 0.163276 0.005717
-0.046862 0.163278 0.005714
-0.046149 0.163282 0.005711
-0.045257 0.163281 0.005529
-0.044454 0.163282 0.005436
-0.043561 0.163281 0.005255
-0.042759 0.163282 0.005162
-0.041956 0.163283 0.005070
-0.032416 0.163095 -0.003695
-0.031524 0.163094 -0.003877
-0.030361 0.163088 -0.004327
-0.029378 0.163085 -0.004598
-0.028485 0.163084 -0.004780
-0.026962 0.163070 -0.005588
-0.025979 0.163067 -0.005859
-0.024996 0.163064 -0.006130
-0.023743 0.163055 -0.006669
-0.022040 0.163037 -0.007656
-0.021147 0.163036 -0.007838
-0.020255 0.163035 -0.008020
-0.019182 0.163030 -0.008380
-0.017658 0.163016 -0.009188
-0.017306 0.163026 -0.008833
-0.015963 0.163016 -0.009462
-0.015521 0.163025 -0.009197
-0.067270 0.162289 -0.057516
-0.067458 0.162310 -0.056625
-0.067826 0.162336 -0.055555
-0.068104 0.162360 -0.054575
-0.068563 0.162388 -0.053415
-0.068931 0.162413 -0.052345
-0.069209 0.162437 -0.051365
-0.069577 0.162462 -0.050295
-0.069766 0.162484 -0.049404
-0.069954 0.162507 -0.048513
-0.070412 0.162533 -0.047353
-0.070600 0.162556 -0.046462
-0.071059 0.162583 -0.045303
-0.071247 0.162606 -0.044412
-0.071615 0.162631 -0.043342
-0.071803 0.162653 -0.042451
-0.072171 0.162678 -0.041381
-0.072450 0.162703 -0.040400
-0.072638 0.162724 -0.039509
-0.073006 0.162751 -0.038439
-0.073194 0.162772 -0.037548
-0.073472 0.162796 -0.036568
-0.078254 0.162913 -0.031117
-0.078622 0.162938 -0.030047
-0.078720 0.162959 -0.029245
-0.078819 0.162979 -0.028443
-0.078737 0.162995 -0.027820
-0.078654 0.163012 -0.027197
-0.078572 0.163028 -0.026575
-0.078490 0.163044 -0.025952
-0.078408 0.163061 -0.025329
-0.078326 0.163077 -0.024706
-0.078154 0.163092 -0.024172
-0.078072 0.163108 -0.023550
-0.077810 0.163121 -0.023105
-0.077728 0.163137 -0.022483
-0.077646 0.163153 -0.021860
-0.077473 0.163168 -0.021326
-0.077301 0.163182 -0.020793
-0.077219 0.163199 -0.020170
-0.076957 0.163211 -0.019726
-0.076875 0.163228 -0.019103
-0.076703 0.163242 -0.018569
-0.076531 0.163257 -0.018036
-0.076268 0.163268 -0.017592
-0.076096 0.163283 -0.017058
-0.075834 0.163296 -0.016614
-0.075572 0.163309 -0.016170
-0.075310 0.163321 -0.015726
-0.074957 0.163332 -0.015371
-0.074605 0.163342 -0.015017
-0.074343 0.163355 -0.014573
-0.073991 0.163366 -0.014218
-0.073638 0.163377 -0.013863
-0.073286 0.163387 -0.013509
-0.072934 0.163398 -0.013154
-0.072582 0.163409 -0.012799
-0.072229 0.163420 -0.012445
-0.071697 0.163427 -0.012269
-0.071435 0.163439 -0.011825
-0.070452 0.163437 -0.012096
-0.050596 0.163747 -0.003632
-0.051775 0.163790 -0.001757
-0.052143 0.163815 -0.000687
-0.052151 0.163833 0.000025
-0.052249 0.163854 0.000827
-0.052077 0.163868 0.001360
-0.051995 0.163885 0.001983
-0.051733 0.163898 0.002427
-0.051561 0.163911 0.002961
-0.051209 0.163922 0.003315
-0.050856 0.163933 0.003670
-0.050414 0.163942 0.003935
-0.050062 0.163952 0.004290
-0.049529 0.163960 0.004466
-0.049087 0.163968 0.004731
-0.048555 0.163975 0.004907
-0.047932 0.163980 0.004993
-0.047400 0.163988 0.005169
-0.046687 0.163991 0.005166
-0.046065 0.163996 0.005252
-0.045352 0.163999 0.005249
-0.044549 0.164000 0.005157
-0.043747 0.164002 0.005065
-0.042854 0.164002 0.004883
-0.042051 0.164003 0.004791
-0.040889 0.163997 0.004341
-0.030899 0.163808 -0.004872
-0.029826 0.163804 -0.005232
-0.028663 0.163798 -0.005682
-0.027950 0.163801 -0.005685
-0.026517 0.163790 -0.006403
-0.025174 0.163779 -0.007032
-0.024462 0.163783 -0.007035
-0.022398 0.163758 -0.008379
-0.021686 0.163762 -0.008382
-0.020342 0.163751 -0.009011
-0.019270 0.163747 -0.009372
-0.018647 0.163753 -0.009285
-0.017124 0.163739 -0.010093
-0.016051 0.163735 -0.010454
-0.015248 0.163736 -0.010546
-0.014536 0.163740 -0.010549
-0.067186 0.163021 -0.057974
-0.067104 0.163037 -0.057352
-0.067382 0.163060 -0.056371
-0.067840 0.163087 -0.055212
-0.068298 0.163114 -0.054052
-0.068577 0.163137 -0.053072
-0.068945 0.163163 -0.052002
-0.069403 0.163189 -0.050842
-0.069591 0.163211 -0.049951
-0.069960 0.163236 -0.048881
-0.070328 0.163261 -0.047812
-0.070606 0.163284 -0.046831
-0.070974 0.163309 -0.045761
-0.071162 0.163331 -0.044870
-0.071711 0.163359 -0.043621
-0.071899 0.163381 -0.042730
-0.072177 0.163403 -0.041750
-0.072635 0.163431 -0.040590
-0.072914 0.163454 -0.039610
-0.073012 0.163474 -0.038808
-0.073380 0.163498 -0.037738
-0.078702 0.163622 -0.031751
-0.078800 0.163642 -0.030949
-0.078898 0.163662 -0.030147
-0.078906 0.163680 -0.029435
-0.078824 0.163696 -0.028812
-0.078832 0.163714 -0.028100
-0.078660 0.163728 -0.027566
-0.078578 0.163744 -0.026943
-0.078496 0.163760 -0.026320
-0.078324 0.163774 -0.025787
-0.078151 0.163789 -0.025254
-0.077979 0.163803 -0.024720
-0.077897 0.163819 -0.024097
-0.077725 0.163834 -0.023564
-0.077553 0.163848 -0.023030
-0.077381 0.163862 -0.022497
-0.077299 0.163878 -0.021874
-0.077127 0.163893 -0.021340
-0.076954 0.163907 -0.020807
-0.076782 0.163922 -0.020273
-0.076610 0.163936 -0.019740
-0.076438 0.163950 -0.019206
-0.076266 0.163965 -0.018673
-0.076004 0.163976 -0.018229
-0.075651 0.163987 -0.017874
-0.075479 0.164002 -0.017341
-0.075217 0.164015 -0.016897
-0.074865 0.164026 -0.016542
-0.074602 0.164037 -0.016098
-0.074160 0.164047 -0.015833
-0.073808 0.164058 -0.015478
-0.073546 0.164070 -0.015034
-0.073103 0.164079 -0.014769
-0.072751 0.164090 -0.014414
-0.072399 0.164101 -0.014059
-0.072046 0.164112 -0.013705
-0.071514 0.164118 -0.013529
-0.070982 0.164126 -0.013353
-0.069909 0.164122 -0.013714
-0.050978 0.164508 -0.002218
-0.051166 0.164530 -0.001327
-0.051264 0.164550 -0.000526
-0.051182 0.164566 0.000097
-0.051100 0.164582 0.000720
-0.051018 0.164598 0.001343
-0.050846 0.164612 0.001877
-0.050584 0.164625 0.002321
-0.050411 0.164640 0.002854
-0.050059 0.164650 0.003209
-0.049707 0.164661 0.003563
-0.049264 0.164670 0.003829
-0.048822 0.164678 0.004094
-0.048380 0.164687 0.004359
-0.047847 0.164695 0.004535
-0.047315 0.164702 0.004711
-0.046692 0.164708 0.004797
-0.046070 0.164713 0.004884
-0.045447 0.164718 0.004970
-0.044645 0.164720 0.004878
-0.043842 0.164722 0.004785
-0.042950 0.164721 0.004604
-0.042057 0.164721 0.004422
-0.041074 0.164719 0.004151
-0.040271 0.164722 0.004058
-0.029471 0.164525 -0.005959
-0.028128 0.164515 -0.006587
-0.027056 0.164512 -0.006948
-0.025712 0.164503 -0.007577
-0.024820 0.164503 -0.007759
-0.023387 0.164493 -0.008477
-0.022044 0.164483 -0.009106
-0.021061 0.164481 -0.009377
-0.019538 0.164469 -0.010185
-0.019005 0.164476 -0.010009
-0.017392 0.164462 -0.010906
-0.016590 0.164464 -0.010998
-0.015247 0.164455 -0.011627
-0.014624 0.164460 -0.011541
-0.014002 0.164465 -0.011454
-0.066929 0.163768 -0.057899
-0.067117 0.163788 -0.057008
-0.067576 0.163815 -0.055849
-0.068034 0.163842 -0.054689
-0.068402 0.163865 -0.053619
-0.068771 0.163890 -0.052549
-0.069229 0.163916 -0.051390
-0.069507 0.163939 -0.050410
-0.069785 0.163962 -0.049429
-0.070244 0.163988 -0.048270
-0.070522 0.164010 -0.047289
-0.070980 0.164037 -0.046130
-0.071348 0.164061 -0.045060
-0.071536 0.164082 -0.044169
-0.071995 0.164108 -0.043009
-0.072363 0.164133 -0.041939
-0.072641 0.164155 -0.040959
-0.073009 0.164180 -0.039889
-0.078691 0.164305 -0.033544
-0.078970 0.164329 -0.032564
-0.078978 0.164346 -0.031851
-0.078896 0.164362 -0.031228
-0.078903 0.164379 -0.030516
-0.078911 0.164397 -0.029804
-0.078829 0.164413 -0.029181
-0.078747 0.164429 -0.028558
-0.078665 0.164444 -0.027935
-0.078493 0.164459 -0.027402
-0.078321 0.164473 -0.026868
-0.078239 0.164489 -0.026245
-0.078067 0.164503 -0.025712
-0.077894 0.164517 -0.025178
-0.077722 0.164531 -0.024645
-0.077640 0.164547 -0.024022
-0.077378 0.164560 -0.023578
-0.077206 0.164574 -0.023044
-0.077034 0.164588 -0.022511
-0.076862 0.164602 -0.021977
-0.076690 0.164617 -0.021444
-0.076607 0.164633 -0.020821
-0.076345 0.164645 -0.020377
-0.076173 0.164659 -0.019844
-0.075911 0.164671 -0.019399
-0.075649 0.164684 -0.018955
-0.075386 0.164696 -0.018511
-0.075034 0.164707 -0.018157
-0.074682 0.164718 -0.017802
-0.074420 0.164730 -0.017358
-0.074157 0.164742 -0.016914
-0.073715 0.164752 -0.016649
-0.073363 0.164763 -0.016294
-0.073101 0.164774 -0.015850
-0.072658 0.164784 -0.015585
-0.072306 0.164795 -0.015230
-0.071954 0.164806 -0.014875
-0.071241 0.164809 -0.014878
-0.070709 0.164816 -0.014702
-0.050091 0.165227 -0.002769
-0.050369 0.165249 -0.001789
-0.050557 0.165270 -0.000897
-0.050385 0.165284 -0.000364
-0.050213 0.165299 0.000169
-0.050131 0.165314 0.000792
-0.049958 0.165329 0.001326
-0.049786 0.165343 0.001859
-0.049524 0.165355 0.002303
-0.049262 0.165368 0.002747
-0.048910 0.165379 0.003102
-0.048557 0.165389 0.003457
-0.048115 0.165398 0.003722
-0.047673 0.165408 0.003987
-0.047230 0.165416 0.004253
-0.046698 0.165424 0.004428
-0.045985 0.165428 0.004425
-0.045453 0.165435 0.004601
-0.044650 0.165437 0.004509
-0.043938 0.165441 0.004506
-0.043135 0.165444 0.004414
-0.042333 0.165446 0.004321
-0.041350 0.165444 0.004050
-0.040547 0.165446 0.003958
-0.029027 0.165244 -0.006774
-0.027864 0.165240 -0.007225
-0.026521 0.165232 -0.007853
-0.025358 0.165227 -0.008303
-0.023655 0.165212 -0.009290
-0.022762 0.165212 -0.009472
-0.021689 0.165209 -0.009832
-0.020526 0.165205 -0.010282
-0.019274 0.165199 -0.010822
-0.018651 0.165204 -0.010735
-0.017128 0.165193 -0.011543
-0.016145 0.165192 -0.011814
-0.014982 0.165186 -0.012264
-0.014360 0.165192 -0.012178
-0.013540 0.165196 -0.012287
-0.066665 0.164498 -0.058536
-0.066853 0.164518 -0.057645
-0.067041 0.164539 -0.056754
-0.067860 0.164571 -0.055237
-0.068228 0.164594 -0.054167
-0.068506 0.164617 -0.053186
-0.069055 0.164644 -0.051938
-0.069513 0.164669 -0.050778
-0.069701 0.164690 -0.049887
-0.070159 0.164715 -0.048728
-0.070527 0.164739 -0.047658
-0.071076 0.164766 -0.046409
-0.071354 0.164789 -0.045429
-0.071632 0.164811 -0.044448
-0.072180 0.164838 -0.043199
-0.072369 0.164858 -0.042308
-0.072827 0.164884 -0.041149
-0.078959 0.165013 -0.034357
-0.079057 0.165032 -0.033555
-0.079155 0.165050 -0.032753
-0.079073 0.165066 -0.032131
-0.078991 0.165082 -0.031508
-0.078999 0.165099 -0.030795
-0.078917 0.165115 -0.030172
-0.078745 0.165128 -0.029639
-0.078573 0.165142 -0.029106
-0.078490 0.165158 -0.028483
-0.078408 0.165174 -0.027860
-0.078236 0.165188 -0.027326
-0.078064 0.165202 -0.026793
-0.077892 0.165216 -0.026259
-0.077720 0.165230 -0.025726
-0.077548 0.165244 -0.025192
-0.077375 0.165258 -0.024659
-0.077203 0.165272 -0.024125
-0.077031 0.165286 -0.023592
-0.076859 0.165300 -0.023058
-0.076687 0.165314 -0.022525
-0.076425 0.165327 -0.022081
-0.076252 0.165341 -0.021547
-0.076080 0.165355 -0.021014
-0.075818 0.165367 -0.020570
-0.075556 0.165379 -0.020126
-0.075204 0.165390 -0.019771
-0.074941 0.165403 -0.019327
-0.074589 0.165414 -0.018972
-0.074237 0.165424 -0.018618
-0.073885 0.165435 -0.018263
-0.073532 0.165446 -0.017908
-0.073180 0.165457 -0.017554
-0.072828 0.165467 -0.017199
-0.072385 0.165476 -0.016934
-0.072033 0.165487 -0.016579
-0.071591 0.165496 -0.016314
-0.071148 0.165505 -0.016049
-0.070526 0.165510 -0.015962
-0.049474 0.165951 -0.003051
-0.049572 0.165970 -0.002250
-0.049760 0.165991 -0.001359
-0.049588 0.166005 -0.000825
-0.049506 0.166020 -0.000202
-0.049333 0.166034 0.000331
-0.049161 0.166049 0.000865
-0.048989 0.166063 0.001398
-0.048817 0.166077 0.001932
-0.048465 0.166087 0.002286
-0.048202 0.166099 0.002730
-0.047940 0.166112 0.003174
-0.047408 0.166120 0.003350
-0.046965 0.166128 0.003616
-0.046433 0.166136 0.003791
-0.045901 0.166143 0.003967
-0.045278 0.166149 0.004054
-0.044566 0.166153 0.004051
-0.043943 0.166160 0.004137
-0.043231 0.166163 0.004134
-0.042428 0.166166 0.004042
-0.041535 0.166167 0.003860
-0.040553 0.166166 0.003589
-0.039840 0.166171 0.003586
-0.026969 0.165954 -0.008487
-0.025986 0.165953 -0.008759
-0.024733 0.165947 -0.009298
-0.023481 0.165941 -0.009837
-0.022318 0.165937 -0.010287
-0.021245 0.165935 -0.010648
-0.020082 0.165931 -0.011098
-0.018829 0.165925 -0.011638
-0.017576 0.165920 -0.012177
-0.016684 0.165920 -0.012359
-0.015791 0.165921 -0.012541
-0.014622 0.165918 -0.012996
-0.013504 0.165921 -0.013403
-0.012672 0.165926 -0.013524
-0.066491 0.165230 -0.059084
-0.066589 0.165248 -0.058282
-0.066777 0.165269 -0.057391
-0.067596 0.165300 -0.055874
-0.067874 0.165321 -0.054893
-0.068602 0.165351 -0.053466
-0.068790 0.165370 -0.052575
-0.069249 0.165396 -0.051415
-0.069527 0.165417 -0.050435
-0.070255 0.165446 -0.049007
-0.070533 0.165469 -0.048027
-0.070992 0.165493 -0.046867
-0.071450 0.165518 -0.045708
-0.071728 0.165539 -0.044728
-0.072276 0.165566 -0.043479
-0.072464 0.165587 -0.042588
-0.079047 0.165717 -0.035349
-0.079235 0.165737 -0.034457
-0.079243 0.165754 -0.033745
-0.079161 0.165769 -0.033122
-0.079079 0.165785 -0.032499
-0.078996 0.165801 -0.031877
-0.078914 0.165816 -0.031254
-0.078832 0.165832 -0.030631
-0.078660 0.165845 -0.030097
-0.078578 0.165861 -0.029474
-0.078316 0.165872 -0.029030
-0.078234 0.165889 -0.028407
-0.078061 0.165902 -0.027874
-0.077889 0.165916 -0.027341
-0.077717 0.165929 -0.026807
-0.077545 0.165943 -0.026273
-0.077373 0.165957 -0.025740
-0.077201 0.165971 -0.025207
-0.076939 0.165984 -0.024762
-0.076766 0.165998 -0.024229
-0.076594 0.166012 -0.023696
-0.076422 0.166025 -0.023162
-0.076160 0.166038 -0.022718
-0.075898 0.166050 -0.022274
-0.075635 0.166062 -0.021830
-0.075373 0.166074 -0.021386
-0.075021 0.166085 -0.021031
-0.074759 0.166098 -0.020587
-0.074406 0.166109 -0.020232
-0.074144 0.166120 -0.019788
-0.073792 0.166131 -0.019434
-0.073350 0.166141 -0.019168
-0.072997 0.166151 -0.018814
-0.072735 0.166163 -0.018370
-0.072293 0.166173 -0.018104
-0.071940 0.166184 -0.017750
-0.071588 0.166194 -0.017395
-0.070786 0.166197 -0.017488
-0.046777 0.166624 -0.006103
-0.048586 0.166672 -0.003602
-0.048955 0.166694 -0.002532
-0.048963 0.166711 -0.001820
-0.048880 0.166727 -0.001197
-0.048798 0.166743 -0.000574
-0.048716 0.166758 0.000049
-0.048544 0.166772 0.000582
-0.048282 0.166784 0.001026
-0.048110 0.166798 0.001560
-0.047757 0.166809 0.001915
-0.047405 0.166820 0.002269
-0.046963 0.166828 0.002534
-0.046611 0.166839 0.002889
-0.046168 0.166849 0.003154
-0.045636 0.166856 0.003330
-0.045103 0.166864 0.003506
-0.044481 0.166870 0.003592
-0.043859 0.166876 0.003679
-0.043146 0.166880 0.003676
-0.042343 0.166883 0.003584
-0.041541 0.166887 0.003491
-0.040648 0.166888 0.003309
-0.039936 0.166892 0.003306
-0.039403 0.166900 0.003482
-0.025452 0.166675 -0.009664
-0.024559 0.166676 -0.009846
-0.023126 0.166668 -0.010564
-0.021873 0.166664 -0.011103
-0.020801 0.166662 -0.011464
-0.019368 0.166653 -0.012182
-0.018295 0.166652 -0.012543
-0.017132 0.166649 -0.012993
-0.015969 0.166645 -0.013443
-0.014778 0.166646 -0.013921
-0.014042 0.166652 -0.013947
-0.012061 0.166648 -0.015210
-0.066325 0.165979 -0.058919
-0.066603 0.166001 -0.057939
-0.067241 0.166027 -0.056600
-0.067700 0.166051 -0.055441
-0.068248 0.166077 -0.054192
-0.068616 0.166099 -0.053122
-0.069164 0.166125 -0.051874
-0.069532 0.166148 -0.050804
-0.070171 0.166175 -0.049465
-0.070629 0.166199 -0.048306
-0.071177 0.166225 -0.047057
-0.071546 0.166247 -0.045987
-0.071914 0.166270 -0.044918
-0.072462 0.166296 -0.043669
-0.079134 0.166422 -0.036340
-0.079232 0.166440 -0.035539
-0.079240 0.166457 -0.034826
-0.079248 0.166474 -0.034114
-0.079166 0.166489 -0.033491
-0.079084 0.166504 -0.032868
-0.079002 0.166519 -0.032245
-0.078830 0.166533 -0.031712
-0.078748 0.166548 -0.031089
-0.078575 0.166562 -0.030555
-0.078403 0.166576 -0.030022
-0.078231 0.166590 -0.029489
-0.078059 0.166603 -0.028955
-0.077887 0.166617 -0.028422
-0.077715 0.166630 -0.027888
-0.077452 0.166642 -0.027444
-0.077370 0.166657 -0.026821
-0.077198 0.166671 -0.026288
-0.076936 0.166684 -0.025844
-0.076764 0.166697 -0.025310
-0.076502 0.166710 -0.024866
-0.076329 0.166724 -0.024333
-0.076157 0.166737 -0.023799
-0.075805 0.166748 -0.023444
-0.075543 0.166760 -0.023000
-0.075280 0.166772 -0.022556
-0.075018 0.166784 -0.022112
-0.074576 0.166794 -0.021847
-0.074224 0.166804 -0.021492
-0.073961 0.166816 -0.021048
-0.073519 0.166826 -0.020783
-0.073257 0.166838 -0.020339
-0.072905 0.166849 -0.019984
-0.072642 0.166861 -0.019540
-0.072200 0.166870 -0.019275
-0.071848 0.166881 -0.018920
-0.071225 0.166887 -0.018834
-0.069882 0.166882 -0.019463
-0.046701 0.167360 -0.005848
-0.047519 0.167390 -0.004331
-0.048158 0.167418 -0.002993
-0.048256 0.167435 -0.002192
-0.048264 0.167452 -0.001479
-0.048181 0.167467 -0.000856
-0.048009 0.167481 -0.000323
-0.047747 0.167493 0.000121
-0.047575 0.167507 0.000655
-0.047403 0.167521 0.001188
-0.046870 0.167528 0.001364
-0.046698 0.167542 0.001897
-0.046346 0.167553 0.002252
-0.045813 0.167561 0.002428
-0.045281 0.167568 0.002604
-0.044839 0.167578 0.002869
-0.044306 0.167585 0.003045
-0.043684 0.167592 0.003131
-0.043061 0.167598 0.003218
-0.042349 0.167603 0.003215
-0.041546 0.167606 0.003122
-0.040744 0.167609 0.003030
-0.040031 0.167614 0.003027
-0.039319 0.167619 0.003024
-0.038336 0.167620 0.002753
-0.024475 0.167408 -0.010304
-0.022862 0.167398 -0.011201
-0.021789 0.167396 -0.011562
-0.020446 0.167390 -0.012190
-0.019013 0.167384 -0.012909
-0.018031 0.167384 -0.013180
-0.016868 0.167381 -0.013630
-0.015412 0.167377 -0.014371
-0.014389 0.167381 -0.014682
-0.013366 0.167386 -0.014994
-0.011864 0.167388 -0.015781
-0.066241 0.166713 -0.059377
-0.066159 0.166728 -0.058754
-0.066887 0.166756 -0.057327
-0.067435 0.166781 -0.056078
-0.067893 0.166805 -0.054919
-0.068532 0.166830 -0.053581
-0.069080 0.166855 -0.052332
-0.069358 0.166877 -0.051351
-0.070087 0.166904 -0.049924
-0.070635 0.166928 -0.048675
-0.071363 0.166956 -0.047247
-0.071551 0.166976 -0.046356
-0.078944 0.167107 -0.038313
-0.079312 0.167130 -0.037243
-0.079320 0.167146 -0.036530
-0.079328 0.167162 -0.035818
-0.079336 0.167179 -0.035106
-0.079164 0.167192 -0.034572
-0.079082 0.167207 -0.033949
-0.078999 0.167222 -0.033326
-0.078917 0.167237 -0.032704
-0.078745 0.167251 -0.032170
-0.078573 0.167264 -0.031637
-0.078401 0.167278 -0.031103
-0.078229 0.167291 -0.030570
-0.078056 0.167305 -0.030036
-0.077884 0.167319 -0.029503
-0.077622 0.167330 -0.029059
-0.077450 0.167344 -0.028525
-0.077278 0.167357 -0.027992
-0.077106 0.167371 -0.027458
-0.076933 0.167384 -0.026925
-0.076671 0.167397 -0.026481
-0.076409 0.167409 -0.026037
-0.076147 0.167421 -0.025592
-0.075975 0.167435 -0.025059
-0.075712 0.167447 -0.024615
-0.075360 0.167457 -0.024260
-0.075098 0.167470 -0.023816
-0.074746 0.167481 -0.023462
-0.074483 0.167493 -0.023017
-0.074041 0.167502 -0.022752
-0.073689 0.167513 -0.022398
-0.073426 0.167525 -0.021953
-0.072984 0.167535 -0.021688
-0.072722 0.167546 -0.021244
-0.072370 0.167557 -0.020890
-0.072107 0.167569 -0.020445
-0.071575 0.167578 -0.020270
-0.071043 0.167585 -0.020094
-0.047082 0.168121 -0.004435
-0.047270 0.168139 -0.003544
-0.047368 0.168157 -0.002742
-0.047376 0.168174 -0.002030
-0.047384 0.168190 -0.001318
-0.047212 0.168204 -0.000784
-0.047040 0.168218 -0.000251
-0.046778 0.168229 0.000193
-0.046425 0.168240 0.000548
-0.046163 0.168252 0.000992
-0.045901 0.168265 0.001436
-0.045459 0.168274 0.001701
-0.044926 0.168282 0.001877
-0.044484 0.168291 0.002143
-0.043952 0.168299 0.002318
-0.043419 0.168307 0.002494
-0.042887 0.168314 0.002670
-0.042264 0.168322 0.002757
-0.041552 0.168326 0.002754
-0.040839 0.168331 0.002751
-0.039947 0.168334 0.002569
-0.039144 0.168338 0.002476
-0.038432 0.168342 0.002473
-0.024031 0.168133 -0.011120
-0.022508 0.168126 -0.011927
-0.021435 0.168126 -0.012288
-0.020182 0.168122 -0.012827
-0.018749 0.168116 -0.013546
-0.017586 0.168114 -0.013996
-0.016424 0.168113 -0.014446
-0.015023 0.168114 -0.015132
-0.013713 0.168117 -0.015729
-0.012307 0.168119 -0.016421
-0.011667 0.168128 -0.016351
-0.066075 0.167463 -0.059213
-0.066533 0.167486 -0.058053
-0.067261 0.167513 -0.056626
-0.067719 0.167536 -0.055466
-0.068267 0.167559 -0.054218
-0.068996 0.167586 -0.052790
-0.069274 0.167607 -0.051809
-0.070363 0.167638 -0.050024
-0.070551 0.167658 -0.049133
-0.071279 0.167684 -0.047706
-0.078941 0.167813 -0.039394
-0.079400 0.167836 -0.038234
-0.079317 0.167851 -0.037611
-0.079325 0.167867 -0.036899
-0.079333 0.167883 -0.036187
-0.079251 0.167897 -0.035564
-0.079169 0.167912 -0.034941
-0.078997 0.167926 -0.034407
-0.078825 0.167939 -0.033874
-0.078743 0.167954 -0.033251
-0.078571 0.167967 -0.032718
-0.078308 0.167980 -0.032274
-0.078136 0.167993 -0.031740
-0.077964 0.168006 -0.031207
-0.077792 0.168020 -0.030673
-0.077620 0.168033 -0.030140
-0.077357 0.168045 -0.029696
-0.077185 0.168058 -0.029162
-0.077013 0.168072 -0.028629
-0.076751 0.168084 -0.028185
-0.076579 0.168097 -0.027651
-0.076316 0.168109 -0.027207
-0.076054 0.168122 -0.026763
-0.075792 0.168134 -0.026319
-0.075530 0.168145 -0.025875
-0.075267 0.168157 -0.025431
-0.074825 0.168167 -0.025166
-0.074563 0.168179 -0.024721
-0.074211 0.168190 -0.024367
-0.073858 0.168200 -0.024012
-0.073506 0.168211 -0.023657
-0.073244 0.168224 -0.023213
-0.072892 0.168235 -0.022859
-0.072449 0.168243 -0.022593
-0.072187 0.168256 -0.022149
-0.071655 0.168264 -0.021974
-0.071122 0.168272 -0.021798
-0.046105 0.168843 -0.005075
-0.046473 0.168865 -0.004005
-0.046571 0.168882 -0.003203
-0.046579 0.168898 -0.002491
-0.046497 0.168912 -0.001868
-0.046415 0.168927 -0.001245
-0.046243 0.168941 -0.000712
-0.045891 0.168952 -0.000357
-0.045628 0.168964 0.000087
-0.045366 0.168976 0.000531
-0.044924 0.168985 0.000796
-0.044482 0.168995 0.001061
-0.044129 0.169006 0.001416
-0.043597 0.169013 0.001592
-0.043155 0.169023 0.001857
-0.042622 0.169030 0.002033
-0.042000 0.169038 0.002119
-0.041377 0.169044 0.002206
-0.040755 0.169051 0.002292
-0.039952 0.169055 0.002200
-0.039150 0.169059 0.002108
-0.038437 0.169064 0.002105
-0.037815 0.169071 0.002191
-0.022153 0.168856 -0.012654
-0.021351 0.168860 -0.012746
-0.019738 0.168852 -0.013643
-0.018575 0.168850 -0.014093
-0.017322 0.168848 -0.014633
-0.016136 0.168850 -0.015106
-0.014826 0.168853 -0.015702
-0.013324 0.168856 -0.016490
-0.012109 0.168861 -0.016991
-0.066171 0.168201 -0.059492
-0.066179 0.168217 -0.058780
-0.066997 0.168244 -0.057263
-0.067455 0.168266 -0.056103
-0.067913 0.168288 -0.054944
-0.069002 0.168319 -0.053159
-0.069460 0.168341 -0.051999
-0.070278 0.168368 -0.050482
-0.070827 0.168391 -0.049234
-0.078759 0.168517 -0.040653
-0.079397 0.168542 -0.039315
-0.079315 0.168557 -0.038692
-0.079323 0.168572 -0.037980
-0.079331 0.168588 -0.037268
-0.079249 0.168602 -0.036645
-0.079167 0.168617 -0.036022
-0.078995 0.168630 -0.035489
-0.078912 0.168645 -0.034866
-0.078740 0.168658 -0.034332
-0.078478 0.168670 -0.033888
-0.078306 0.168683 -0.033355
-0.078134 0.168697 -0.032821
-0.077961 0.168710 -0.032288
-0.077789 0.168723 -0.031754
-0.077527 0.168735 -0.031310
-0.077265 0.168747 -0.030866
-0.077093 0.168760 -0.030333
-0.076920 0.168773 -0.029799
-0.076658 0.168785 -0.029355
-0.076396 0.168798 -0.028911
-0.076134 0.168810 -0.028467
-0.075872 0.168822 -0.028023
-0.075609 0.168834 -0.027579
-0.075257 0.168844 -0.027224
-0.074905 0.168855 -0.026870
-0.074643 0.168867 -0.026425
-0.074290 0.168878 -0.026071
-0.073938 0.168888 -0.025716
-0.073586 0.168899 -0.025361
-0.073323 0.168911 -0.024917
-0.073061 0.168924 -0.024473
-0.072709 0.168935 -0.024119
-0.072447 0.168946 -0.023675
-0.072094 0.168957 -0.023320
-0.071652 0.168967 -0.023055
-0.070760 0.168970 -0.023237
-0.043679 0.169531 -0.007858
-0.045308 0.169570 -0.005536
-0.045676 0.169590 -0.004466
-0.045774 0.169607 -0.003665
-0.045602 0.169620 -0.003131
-0.045610 0.169637 -0.002419
-0.045438 0.169649 -0.001885
-0.045266 0.169662 -0.001352
-0.045094 0.169676 -0.000818
-0.044741 0.169687 -0.000464
-0.044389 0.169698 -0.000109
-0.044037 0.169709 0.000246
-0.043594 0.169717 0.000511
-0.043152 0.169727 0.000776
-0.042710 0.169737 0.001041
-0.042177 0.169745 0.001217
-0.041735 0.169755 0.001482
-0.041113 0.169761 0.001569
-0.040490 0.169769 0.001655
-0.039778 0.169774 0.001652
-0.039065 0.169780 0.001649
-0.038353 0.169786 0.001646
-0.037640 0.169791 0.001643
-0.037018 0.169798 0.001730
-0.021087 0.169592 -0.013383
-0.019564 0.169586 -0.014191
-0.018491 0.169587 -0.014551
-0.017148 0.169584 -0.015180
-0.015460 0.169585 -0.016152
-0.013958 0.169590 -0.016939
-0.012935 0.169596 -0.017251
-0.011912 0.169603 -0.017562
-0.066094 0.168952 -0.059238
-0.066553 0.168974 -0.058079
-0.067191 0.168998 -0.056740
-0.068009 0.169024 -0.055223
-0.068647 0.169047 -0.053885
-0.069286 0.169070 -0.052547
-0.069924 0.169094 -0.051209
-0.078757 0.169225 -0.041735
-0.079305 0.169248 -0.040486
-0.079403 0.169264 -0.039684
-0.079411 0.169280 -0.038972
-0.079329 0.169294 -0.038349
-0.079246 0.169308 -0.037726
-0.079164 0.169322 -0.037103
-0.078992 0.169336 -0.036570
-0.078910 0.169350 -0.035947
-0.078648 0.169362 -0.035503
-0.078476 0.169375 -0.034969
-0.078303 0.169388 -0.034436
-0.078041 0.169400 -0.033992
-0.077869 0.169413 -0.033458
-0.077697 0.169427 -0.032925
-0.077435 0.169439 -0.032481
-0.077262 0.169452 -0.031947
-0.076910 0.169462 -0.031593
-0.076648 0.169474 -0.031149
-0.076476 0.169487 -0.030615
-0.076213 0.169499 -0.030171
-0.075951 0.169511 -0.029727
-0.075689 0.169523 -0.029283
-0.075427 0.169534 -0.028839
-0.075075 0.169545 -0.028484
-0.074632 0.169555 -0.028219
-0.074280 0.169566 -0.027864
-0.074108 0.169579 -0.027331
-0.073755 0.169589 -0.026976
-0.073403 0.169600 -0.026621
-0.072961 0.169610 -0.026356
-0.072789 0.169624 -0.025823
-0.072436 0.169634 -0.025468
-0.071994 0.169643 -0.025203
-0.071732 0.169656 -0.024759
-0.044331 0.170295 -0.006176
-0.044609 0.170313 -0.005196
-0.044887 0.170333 -0.004215
-0.044625 0.170345 -0.003771
-0.044723 0.170361 -0.002969
-0.044461 0.170373 -0.002525
-0.044379 0.170388 -0.001902
-0.044116 0.170400 -0.001458
-0.043764 0.170410 -0.001104
-0.043502 0.170422 -0.000660
-0.043150 0.170433 -0.000305
-0.042797 0.170444 0.000050
-0.042265 0.170452 0.000225
-0.041823 0.170461 0.000491
-0.041380 0.170471 0.000756
-0.040848 0.170479 0.000932
-0.040226 0.170487 0.001018
-0.039603 0.170494 0.001105
-0.038891 0.170499 0.001102
-0.038268 0.170507 0.001188
-0.037556 0.170513 0.001185
-0.036843 0.170519 0.001182
-0.020823 0.170325 -0.014020
-0.019480 0.170322 -0.014649
-0.018227 0.170321 -0.015188
-0.016765 0.170322 -0.015935
-0.015167 0.170325 -0.016818
-0.013665 0.170329 -0.017605
-0.012834 0.170338 -0.017726
-0.011428 0.170343 -0.018418
-0.065920 0.169686 -0.059785
-0.066378 0.169707 -0.058626
-0.067197 0.169733 -0.057109
-0.067925 0.169757 -0.055682
-0.068293 0.169776 -0.054612
-0.069472 0.169806 -0.052737
-0.078574 0.169932 -0.042995
-0.079212 0.169955 -0.041656
-0.079310 0.169971 -0.040855
-0.079318 0.169986 -0.040142
-0.079326 0.170001 -0.039430
-0.079244 0.170015 -0.038807
-0.079072 0.170028 -0.038274
-0.078990 0.170042 -0.037651
-0.078818 0.170055 -0.037117
-0.078645 0.170068 -0.036584
-0.078473 0.170081 -0.036050
-0.078211 0.170093 -0.035606
-0.077949 0.170105 -0.035162
-0.077777 0.170118 -0.034629
-0.077514 0.170130 -0.034185
-0.077342 0.170143 -0.033651
-0.077080 0.170155 -0.033207
-0.076818 0.170166 -0.032763
-0.076645 0.170179 -0.032230
-0.076293 0.170190 -0.031875
-0.076031 0.170202 -0.031431
-0.075769 0.170214 -0.030987
-0.075416 0.170224 -0.030632
-0.075064 0.170235 -0.030277
-0.074712 0.170246 -0.029923
-0.074360 0.170257 -0.029568
-0.074097 0.170269 -0.029124
-0.073745 0.170279 -0.028769
-0.073303 0.170289 -0.028504
-0.073131 0.170302 -0.027971
-0.072778 0.170313 -0.027616
-0.072516 0.170324 -0.027172
-0.072164 0.170335 -0.026817
-0.071631 0.170344 -0.026642
-0.071009 0.170351 -0.026555
-0.043354 0.171021 -0.006816
-0.043722 0.171041 -0.005746
-0.044000 0.171059 -0.004766
-0.043918 0.171073 -0.004143
-0.043836 0.171087 -0.003520
-0.043664 0.171100 -0.002987
-0.043492 0.171113 -0.002453
-0.043229 0.171125 -0.002009
-0.042877 0.171136 -0.001654
-0.042525 0.171147 -0.001300
-0.042173 0.171157 -0.000945
-0.041730 0.171167 -0.000680
-0.041378 0.171178 -0.000325
-0.040936 0.171187 -0.000060
-0.040403 0.171196 0.000116
-0.039871 0.171204 0.000292
-0.039339 0.171213 0.000468
-0.038716 0.171220 0.000554
-0.038184 0.171229 0.000730
-0.037381 0.171234 0.000638
-0.036759 0.171242 0.000724
-0.036046 0.171248 0.000721
-0.019396 0.171059 -0.015107
-0.017963 0.171056 -0.015825
-0.016472 0.171061 -0.016601
-0.014874 0.171066 -0.017484
-0.013468 0.171072 -0.018176
-0.012732 0.171081 -0.018202
-0.065836 0.170422 -0.060244
-0.066024 0.170440 -0.059353
-0.066662 0.170462 -0.058014
-0.067661 0.170488 -0.056319
-0.068389 0.170511 -0.054891
-0.069478 0.170538 -0.053106
-0.079210 0.170664 -0.042737
-0.079308 0.170679 -0.041936
-0.079316 0.170694 -0.041223
-0.079234 0.170708 -0.040601
-0.079152 0.170722 -0.039978
-0.079070 0.170736 -0.039355
-0.078987 0.170750 -0.038732
-0.078725 0.170761 -0.038288
-0.078553 0.170774 -0.037754
-0.078291 0.170786 -0.037310
-0.078028 0.170798 -0.036866
-0.077856 0.170811 -0.036333
-0.077594 0.170823 -0.035889
-0.077332 0.170835 -0.035445
-0.077160 0.170847 -0.034911
-0.076807 0.170857 -0.034556
-0.076545 0.170869 -0.034112
-0.076373 0.170882 -0.033579
-0.076021 0.170893 -0.033224
-0.075668 0.170904 -0.032870
-0.075496 0.170917 -0.032336
-0.075144 0.170927 -0.031981
-0.074792 0.170938 -0.031627
-0.074259 0.170947 -0.031451
-0.074087 0.170959 -0.030917
-0.073825 0.170971 -0.030473
-0.073473 0.170982 -0.030119
-0.073210 0.170994 -0.029675
-0.072858 0.171005 -0.029320
-0.072416 0.171014 -0.029055
-0.072063 0.171025 -0.028700
-0.071711 0.171036 -0.028345
-0.041927 0.171744 -0.007903
-0.042745 0.171768 -0.006386
-0.043023 0.171786 -0.005406
-0.042941 0.171800 -0.004783
-0.042949 0.171815 -0.004071
-0.042777 0.171828 -0.003537
-0.042605 0.171841 -0.003004
-0.042342 0.171851 -0.002560
-0.041990 0.171862 -0.002205
-0.041638 0.171873 -0.001850
-0.041376 0.171885 -0.001406
-0.040933 0.171894 -0.001141
-0.040491 0.171905 -0.000876
-0.039959 0.171914 -0.000700
-0.039606 0.171924 -0.000345
-0.038984 0.171932 -0.000259
-0.038452 0.171940 -0.000083
-0.037829 0.171948 0.000004
-0.037207 0.171956 0.000090
-0.036584 0.171964 0.000176
-0.035782 0.171969 0.000084
-0.035250 0.171977 0.000260
-0.017873 0.171795 -0.016289
-0.016371 0.171802 -0.017077
-0.015060 0.171809 -0.017674
-0.013462 0.171815 -0.018556
-0.012535 0.171824 -0.018773
-0.066120 0.171178 -0.059632
-0.066308 0.171194 -0.058741
-0.067307 0.171220 -0.057045
-0.068485 0.171246 -0.055170
-0.078938 0.171371 -0.044087
-0.079216 0.171388 -0.043106
-0.079224 0.171402 -0.042394
-0.079142 0.171416 -0.041771
-0.079149 0.171431 -0.041059
-0.078977 0.171444 -0.040525
-0.078895 0.171458 -0.039902
-0.078633 0.171468 -0.039458
-0.078461 0.171481 -0.038925
-0.078288 0.171494 -0.038391
-0.078026 0.171506 -0.037947
-0.077764 0.171517 -0.037503
-0.077502 0.171529 -0.037059
-0.077149 0.171540 -0.036705
-0.076977 0.171553 -0.036171
-0.076625 0.171563 -0.035816
-0.076273 0.171574 -0.035462
-0.076010 0.171586 -0.035018
-0.075658 0.171597 -0.034663
-0.075126 0.171605 -0.034487
-0.074864 0.171617 -0.034043
-0.074691 0.171630 -0.033510
-0.074249 0.171640 -0.033244
-0.073987 0.171651 -0.032800
-0.073725 0.171663 -0.032356
-0.073462 0.171674 -0.031912
-0.073200 0.171686 -0.031468
-0.072848 0.171697 -0.031113
-0.072405 0.171706 -0.030848
-0.072053 0.171717 -0.030494
-0.071251 0.171723 -0.030586
-0.040770 0.172472 -0.008722
-0.041408 0.172493 -0.007384
-0.041866 0.172513 -0.006225
-0.042054 0.172529 -0.005333
-0.042062 0.172543 -0.004621
-0.041800 0.172555 -0.004177
-0.041538 0.172567 -0.003733
-0.041365 0.172579 -0.003200
-0.041013 0.172590 -0.002845
-0.040661 0.172600 -0.002490
-0.040219 0.172611 -0.002225
-0.039866 0.172622 -0.001870
-0.039514 0.172632 -0.001516
-0.038982 0.172641 -0.001340
-0.038539 0.172651 -0.001075
-0.038097 0.172660 -0.000809
-0.037475 0.172669 -0.000723
-0.036942 0.172677 -0.000547
-0.036410 0.172686 -0.000371
-0.035607 0.172692 -0.000464
-0.034895 0.172699 -0.000467
-0.034363 0.172708 -0.000291
-0.016461 0.172544 -0.017362
-0.015151 0.172552 -0.017959
-0.013361 0.172558 -0.019032
-0.012146 0.172567 -0.019534
-0.066126 0.171915 -0.060001
-0.066044 0.171928 -0.059378
-0.067223 0.171954 -0.057503
-0.078575 0.172079 -0.045526
-0.079124 0.172098 -0.044277
-0.079131 0.172112 -0.043564
-0.079139 0.172127 -0.042852
-0.079057 0.172140 -0.042229
-0.078885 0.172153 -0.041696
-0.078803 0.172166 -0.041073
-0.078631 0.172178 -0.040539
-0.078458 0.172190 -0.040006
-0.078106 0.172201 -0.039651
-0.077934 0.172214 -0.039118
-0.077672 0.172225 -0.038674
-0.077229 0.172236 -0.038409
-0.077057 0.172248 -0.037875
-0.076705 0.172258 -0.037520
-0.076353 0.172269 -0.037166
-0.076090 0.172281 -0.036722
-0.075648 0.172291 -0.036456
-0.075386 0.172302 -0.036012
-0.075034 0.172313 -0.035658
-0.074591 0.172323 -0.035392
-0.074329 0.172335 -0.034948
-0.074157 0.172347 -0.034415
-0.073804 0.172357 -0.034060
-0.073362 0.172368 -0.033795
-0.073010 0.172379 -0.033440
-0.072477 0.172387 -0.033264
-0.071675 0.172393 -0.033357
-0.040341 0.173222 -0.008113
-0.040979 0.173243 -0.006775
-0.040807 0.173255 -0.006242
-0.040905 0.173270 -0.005440
-0.040823 0.173283 -0.004817
-0.040741 0.173297 -0.004194
-0.040389 0.173308 -0.003840
-0.040126 0.173320 -0.003396
-0.039774 0.173331 -0.003041
-0.039422 0.173341 -0.002686
-0.038889 0.173350 -0.002510
-0.038537 0.173361 -0.002156
-0.038095 0.173370 -0.001890
-0.037562 0.173380 -0.001715
-0.037030 0.173388 -0.001539
-0.036588 0.173398 -0.001273
-0.035965 0.173406 -0.001187
-0.035343 0.173415 -0.001101
-0.034631 0.173422 -0.001104
-0.034188 0.173432 -0.000838
-0.016456 0.173285 -0.017742
-0.014954 0.173294 -0.018530
-0.013451 0.173302 -0.019317
-0.066050 0.172666 -0.059747
-0.067139 0.172690 -0.057961
-0.078941 0.172808 -0.045537
-0.079039 0.172822 -0.044735
-0.078957 0.172835 -0.044112
-0.078965 0.172850 -0.043400
-0.078883 0.172863 -0.042777
-0.078800 0.172876 -0.042154
-0.078538 0.172888 -0.041710
-0.078366 0.172899 -0.041176
-0.078104 0.172911 -0.040732
-0.077842 0.172923 -0.040288
-0.077489 0.172934 -0.039934
-0.077227 0.172945 -0.039490
-0.076875 0.172955 -0.039135
-0.076522 0.172966 -0.038780
-0.075990 0.172976 -0.038604
-0.075638 0.172987 -0.038250
-0.075286 0.172997 -0.037895
-0.075023 0.173009 -0.037451
-0.074671 0.173020 -0.037096
-0.074229 0.173029 -0.036831
-0.074057 0.173041 -0.036298
-0.073884 0.173054 -0.035764
-0.073442 0.173064 -0.035499
-0.073180 0.173076 -0.035055
-0.072467 0.173083 -0.035058
-0.039004 0.173951 -0.009111
-0.039732 0.173971 -0.007683
-0.040010 0.173988 -0.006703
-0.039928 0.174001 -0.006080
-0.039846 0.174014 -0.005457
-0.039674 0.174027 -0.004924
-0.039502 0.174038 -0.004390
-0.039239 0.174050 -0.003946
-0.038797 0.174060 -0.003681
-0.038445 0.174071 -0.003326
-0.038093 0.174081 -0.002972
-0.037560 0.174091 -0.002796
-0.037118 0.174101 -0.002530
-0.036676 0.174110 -0.002265
-0.036143 0.174120 -0.002089
-0.035521 0.174128 -0.002003
-0.034988 0.174137 -0.001827
-0.034456 0.174146 -0.001651
-0.033744 0.174154 -0.001654
-0.033211 0.174163 -0.001478
-0.015044 0.174037 -0.018815
-0.013541 0.174047 -0.019603
-0.066146 0.173405 -0.060026
-0.078669 0.173518 -0.046886
-0.078857 0.173533 -0.045995
-0.078955 0.173548 -0.045193
-0.078873 0.173561 -0.044570
-0.078790 0.173574 -0.043947
-0.078708 0.173587 -0.043325
-0.078536 0.173599 -0.042791
-0.078274 0.173610 -0.042347
-0.078012 0.173621 -0.041903
-0.077749 0.173633 -0.041459
-0.077397 0.173644 -0.041104
-0.077135 0.173655 -0.040660
-0.076692 0.173665 -0.040395
-0.076340 0.173676 -0.040040
-0.075988 0.173687 -0.039686
-0.075636 0.173698 -0.039331
-0.075283 0.173708 -0.038976
-0.074841 0.173718 -0.038711
-0.074489 0.173729 -0.038356
-0.074136 0.173739 -0.038002
-0.073784 0.173750 -0.037647
-0.073522 0.173762 -0.037203
-0.072810 0.173769 -0.037206
-0.038576 0.174702 -0.008502
-0.038853 0.174719 -0.007522
-0.038861 0.174732 -0.006809
-0.038779 0.174745 -0.006187
-0.038607 0.174757 -0.005653
-0.038435 0.174769 -0.005120
-0.038172 0.174781 -0.004676
-0.037910 0.174792 -0.004231
-0.037468 0.174802 -0.003966
-0.037026 0.174812 -0.003701
-0.036673 0.174822 -0.003346
-0.036231 0.174833 -0.003081
-0.035699 0.174843 -0.002905
-0.035166 0.174851 -0.002729
-0.034634 0.174861 -0.002553
-0.034192 0.174871 -0.002288
-0.033479 0.174879 -0.002291
-0.032767 0.174887 -0.002294
-0.032144 0.174895 -0.002208
-0.013728 0.174791 -0.019793
-0.078675 0.174245 -0.047255
-0.078682 0.174258 -0.046543
-0.078690 0.174272 -0.045830
-0.078788 0.174286 -0.045029
-0.078616 0.174298 -0.044495
-0.078444 0.174310 -0.043962
-0.078272 0.174322 -0.043428
-0.077919 0.174332 -0.043073
-0.077657 0.174344 -0.042629
-0.077395 0.174355 -0.042185
-0.076953 0.174366 -0.041920
-0.076600 0.174376 -0.041565
-0.076158 0.174386 -0.041300
-0.075806 0.174397 -0.040945
-0.075543 0.174409 -0.040501
-0.075101 0.174418 -0.040236
-0.074749 0.174429 -0.039881
-0.074397 0.174440 -0.039527
-0.073864 0.174449 -0.039351
-0.073512 0.174460 -0.038996
-0.073070 0.174471 -0.038731
-0.072177 0.174477 -0.038913
-0.037149 0.175433 -0.009589
-0.037697 0.175451 -0.008341
-0.037615 0.175464 -0.007718
-0.037802 0.175478 -0.006827
-0.037630 0.175490 -0.006293
-0.037368 0.175501 -0.005849
-0.037196 0.175513 -0.005315
-0.036843 0.175524 -0.004961
-0.036401 0.175534 -0.004696
-0.035959 0.175544 -0.004430
-0.035697 0.175556 -0.003986
-0.035254 0.175565 -0.003721
-0.034812 0.175576 -0.003456
-0.034190 0.175584 -0.003369
-0.033657 0.175594 -0.003193
-0.033125 0.175603 -0.003018
-0.032503 0.175612 -0.002931
-0.031970 0.175621 -0.002755
-0.013722 0.175536 -0.020174
-0.078402 0.174958 -0.048604
-0.078590 0.174972 -0.047713
-0.078688 0.174986 -0.046911
-0.078606 0.174998 -0.046288
-0.078524 0.175011 -0.045666
-0.078352 0.175023 -0.045132
-0.078179 0.175035 -0.044599
-0.077917 0.175045 -0.044154
-0.077655 0.175057 -0.043710
-0.077303 0.175068 -0.043356
-0.076860 0.175078 -0.043091
-0.076508 0.175088 -0.042736
-0.076066 0.175099 -0.042471
-0.075803 0.175110 -0.042027
-0.075451 0.175121 -0.041672
-0.075009 0.175131 -0.041407
-0.074567 0.175141 -0.041141
-0.074214 0.175152 -0.040787
-0.073682 0.175161 -0.040611
-0.073330 0.175172 -0.040256
-0.072347 0.175179 -0.040527
-0.036540 0.176185 -0.009159
-0.036548 0.176198 -0.008447
-0.036375 0.176210 -0.007914
-0.036383 0.176222 -0.007201
-0.036391 0.176235 -0.006489
-0.036039 0.176246 -0.006134
-0.035777 0.176258 -0.005690
-0.035424 0.176268 -0.005336
-0.035252 0.176280 -0.004802
-0.034900 0.176291 -0.004447
-0.034368 0.176301 -0.004272
-0.033835 0.176310 -0.004096
-0.033393 0.176320 -0.003831
-0.032860 0.176329 -0.003655
-0.032238 0.176339 -0.003568
-0.031616 0.176348 -0.003482
-0.030993 0.176357 -0.003395
-0.078408 0.175686 -0.048973
-0.078416 0.175698 -0.048261
-0.078514 0.175712 -0.047459
-0.078432 0.175724 -0.046836
-0.078349 0.175737 -0.046213
-0.078087 0.175748 -0.045769
-0.077915 0.175760 -0.045236
-0.077563 0.175770 -0.044881
-0.077210 0.175781 -0.044526
-0.076768 0.175791 -0.044261
-0.076416 0.175801 -0.043906
-0.076064 0.175812 -0.043552
-0.075621 0.175823 -0.043286
-0.075359 0.175834 -0.042842
-0.074917 0.175844 -0.042577
-0.074474 0.175855 -0.042312
-0.074032 0.175865 -0.042047
-0.073320 0.175874 -0.042050
-0.035571 0.176934 -0.009087
-0.035579 0.176946 -0.008375
-0.035317 0.176958 -0.007931
-0.035144 0.176969 -0.007397
-0.035152 0.176982 -0.006685
-0.034890 0.176993 -0.006241
-0.034448 0.177004 -0.005976
-0.034185 0.177015 -0.005532
-0.033743 0.177025 -0.005266
-0.033391 0.177036 -0.004912
-0.032949 0.177047 -0.004646
-0.032416 0.177056 -0.004471
-0.031884 0.177066 -0.004295
-0.031351 0.177075 -0.004119
-0.030729 0.177085 -0.004032
-0.077686 0.176399 -0.050769
-0.078144 0.176413 -0.049610
-0.078242 0.176427 -0.048808
-0.078250 0.176439 -0.048096
-0.078257 0.176451 -0.047384
-0.077995 0.176462 -0.046940
-0.077733 0.176474 -0.046496
-0.077471 0.176484 -0.046051
-0.077118 0.176495 -0.045697
-0.076676 0.176506 -0.045432
-0.076414 0.176517 -0.044987
-0.075971 0.176527 -0.044722
-0.075619 0.176538 -0.044368
-0.075357 0.176549 -0.043923
-0.074825 0.176558 -0.043748
-0.074112 0.176568 -0.043751
-0.073670 0.176578 -0.043485
-0.034332 0.177682 -0.009283
-0.034070 0.177694 -0.008839
-0.033898 0.177705 -0.008305
-0.033905 0.177718 -0.007593
-0.033553 0.177729 -0.007238
-0.033471 0.177741 -0.006616
-0.033119 0.177752 -0.006261
-0.032766 0.177763 -0.005906
-0.032414 0.177773 -0.005552
-0.031972 0.177783 -0.005286
-0.031529 0.177794 -0.005021
-0.030907 0.177803 -0.004935
-0.030285 0.177812 -0.004848
-0.029482 0.177821 -0.004941
-0.077512 0.177128 -0.051317
-0.077790 0.177141 -0.050336
-0.077977 0.177154 -0.049445
-0.077895 0.177166 -0.048822
-0.077903 0.177178 -0.048110
-0.077641 0.177189 -0.047666
-0.077378 0.177199 -0.047222
-0.076936 0.177210 -0.046957
-0.076584 0.177221 -0.046602
-0.076142 0.177231 -0.046337
-0.075879 0.177242 -0.045893
-0.075617 0.177253 -0.045449
-0.075175 0.177264 -0.045183
-0.074552 0.177273 -0.045097
-0.074110 0.177284 -0.044832
-0.032905 0.178420 -0.010370
-0.033093 0.178433 -0.009479
-0.032921 0.178444 -0.008945
-0.032749 0.178455 -0.008412
-0.032667 0.178467 -0.007789
-0.032314 0.178478 -0.007434
-0.032052 0.178489 -0.006990
-0.031700 0.178500 -0.006636
-0.031437 0.178511 -0.006192
-0.030905 0.178521 -0.006016
-0.030553 0.178532 -0.005661
-0.030021 0.178542 -0.005485
-0.029308 0.178552 -0.005488
-0.028776 0.178561 -0.005312
-0.077435 0.177870 -0.051063
-0.077533 0.177881 -0.050261
-0.077541 0.177893 -0.049549
-0.077459 0.177904 -0.048926
-0.077196 0.177916 -0.048482
-0.076844 0.177927 -0.048127
-0.076402 0.177937 -0.047862
-0.076050 0.177947 -0.047507
-0.075697 0.177958 -0.047153
-0.075345 0.177969 -0.046798
-0.074723 0.177979 -0.046712
-0.074100 0.177990 -0.046625
-0.072488 0.177996 -0.047522
-0.031929 0.179160 -0.011010
-0.031757 0.179172 -0.010477
-0.031854 0.179185 -0.009675
-0.031592 0.179195 -0.009231
-0.031510 0.179207 -0.008608
-0.031248 0.179217 -0.008164
-0.030985 0.179228 -0.007720
-0.030633 0.179239 -0.007365
-0.030461 0.179251 -0.006832
-0.030109 0.179262 -0.006477
-0.029666 0.179272 -0.006212
-0.028954 0.179282 -0.006215
-0.028422 0.179292 -0.006039
-0.076631 0.178598 -0.052236
-0.076819 0.178610 -0.051345
-0.077007 0.178622 -0.050454
-0.076654 0.178633 -0.050099
-0.076572 0.178644 -0.049477
-0.076310 0.178655 -0.049032
-0.075777 0.178665 -0.048857
-0.075425 0.178676 -0.048502
-0.075163 0.178687 -0.048058
-0.074811 0.178698 -0.047703
-0.073828 0.178707 -0.047974
-0.070145 0.178711 -0.050928
-0.069883 0.178721 -0.050484
-0.030240 0.179913 -0.011653
-0.030428 0.179924 -0.010762
-0.030436 0.179937 -0.010050
-0.030533 0.179948 -0.009248
-0.030181 0.179959 -0.008893
-0.030009 0.179970 -0.008360
-0.029657 0.179980 -0.008005
-0.029484 0.179992 -0.007472
-0.029042 0.180002 -0.007206
-0.028600 0.180012 -0.006941
-0.027887 0.180023 -0.006944
-0.027265 0.180033 -0.006858
-0.075474 0.179339 -0.053055
-0.075572 0.179351 -0.052253
-0.075850 0.179362 -0.051273
-0.075768 0.179373 -0.050650
-0.075415 0.179384 -0.050295
-0.075063 0.179395 -0.049941
-0.074801 0.179406 -0.049497
-0.074269 0.179416 -0.049321
-0.073466 0.179426 -0.049413
-0.072394 0.179436 -0.049774
-0.028903 0.180656 -0.012651
-0.029541 0.180669 -0.011312
-0.029459 0.180680 -0.010690
-0.029467 0.180691 -0.009977
-0.029295 0.180702 -0.009444
-0.029122 0.180713 -0.008910
-0.028680 0.180724 -0.008645
-0.028418 0.180734 -0.008201
-0.028066 0.180745 -0.007846
-0.027353 0.180755 -0.007849
-0.026821 0.180766 -0.007673
-0.026019 0.180776 -0.007766
-0.074408 0.180082 -0.053784
-0.074326 0.180093 -0.053162
-0.073973 0.180103 -0.052807
-0.074251 0.180115 -0.051826
-0.074169 0.180125 -0.051204
-0.073547 0.180136 -0.051117
-0.072564 0.180146 -0.051388
-0.072122 0.180157 -0.051123
-0.070059 0.180167 -0.052467
-0.028025 0.181413 -0.012489
-0.028303 0.181424 -0.011508
-0.028220 0.181435 -0.010885
-0.028048 0.181445 -0.010352
-0.028056 0.181456 -0.009640
-0.027794 0.181467 -0.009196
-0.027351 0.181478 -0.008930
-0.026909 0.181488 -0.008665
-0.026377 0.181499 -0.008489
-0.025574 0.181510 -0.008582
-0.073251 0.180826 -0.054603
-0.073439 0.180837 -0.053712
-0.073087 0.180848 -0.053358
-0.072555 0.180858 -0.053182
-0.072292 0.180869 -0.052738
-0.071850 0.180880 -0.052472
-0.024700 0.182150 -0.016166
